ply
format ascii 1.0
comment PCL generated
element vertex 1062
property float x
property float y
property float z
property uchar red
property uchar green
property uchar blue
element camera 0
property float view_px
property float view_py
property float view_pz
property float x_axisx
property float x_axisy
property float x_axisz
property float y_axisx
property float y_axisy
property float y_axisz
property float z_axisx
property float z_axisy
property float z_axisz
property float focal
property float scalex
property float scaley
property float centerx
property float centery
property int viewportx
property int viewporty
property float k1
property float k2
end_header
0.12236021 -0.046851382 0.86800003 76 62 36
0.12947278 -0.046851382 0.86800003 81 67 41
0.13184363 -0.046851382 0.86800003 82 66 41
0.13421448 -0.046851382 0.86800003 73 57 32
0.13658534 -0.046851382 0.86800003 77 61 36
0.13911627 -0.04453177 0.86900002 79 65 39
0.11313689 -0.058840908 0.87000006 81 65 40
0.1273948 -0.056464594 0.87000006 83 69 43
0.11313689 -0.046959329 0.87000006 72 57 34
0.13690005 -0.044583015 0.87000006 80 66 40
0.1418155 -0.049392354 0.87100005 75 61 35
0.11088789 -0.047013305 0.87100005 71 56 33
0.13943645 -0.047013305 0.87100005 79 65 39
0.13467836 -0.04463426 0.87100005 78 64 38
0.1418155 -0.04463426 0.87100005 76 62 36
0.10625163 -0.047067285 0.87200004 68 56 30
0.14197832 -0.047067285 0.87200004 76 62 36
0.13006942 -0.044685505 0.87200004 75 61 35
0.13245121 -0.044685505 0.87200004 78 64 38
0.1443601 -0.044685505 0.87200004 70 56 30
0.099219948 -0.061428323 0.87300003 0 0 0
0.13036774 -0.056724206 0.87400001 77 62 39
0.13737212 -0.05427479 0.87300003 79 65 39
0.13975662 -0.05189028 0.87300003 74 59 36
0.14452565 -0.04950577 0.87300003 76 62 36
0.10410809 -0.047175236 0.87400001 68 54 28
0.10875799 -0.04712126 0.87300003 69 57 31
0.14452565 -0.04712126 0.87300003 74 60 34
0.14707844 -0.047175236 0.87400001 76 62 36
0.12559326 -0.044787996 0.87400001 70 56 30
0.1279805 -0.044787996 0.87400001 72 58 32
0.14707844 -0.044787996 0.87400001 69 55 29
0.10160446 -0.030429687 0.87300003 112 98 71
0.10410809 -0.030464543 0.87400001 108 94 68
0.11617707 -0.059179075 0.87500006 83 67 42
0.1496367 -0.044839237 0.87500006 71 57 31
0.14741501 -0.049675889 0.87600005 71 57 31
0.14980771 -0.047283188 0.87600005 69 57 31
0.099560916 -0.030534256 0.87600005 116 102 75
0.1450223 -0.030534256 0.87600005 66 53 36
0.14741501 -0.030534256 0.87600005 70 55 36
0.10458455 -0.061780144 0.87800002 68 57 37
0.14295523 -0.052187476 0.87800002 71 56 33
0.10207 -0.047337163 0.87700003 61 49 27
0.12137172 -0.044992972 0.87800002 65 50 27
0.12362893 -0.044941727 0.87700003 67 53 27
0.15237416 -0.044941727 0.87700003 72 58 32
0.14055707 -0.042594805 0.87800002 69 57 31
0.14295523 -0.042594805 0.87800002 72 60 36
0.14535339 -0.042594805 0.87800002 72 60 36
0.10218639 -0.033002138 0.87800002 96 80 54
0.14295523 -0.030603969 0.87800002 55 44 26
0.14997873 -0.030569112 0.87700003 71 56 37
0.10938089 -0.025807634 0.87800002 62 51 31
0.12616806 -0.025807634 0.87800002 52 39 20
0.12856622 -0.025807634 0.87800002 55 42 23
0.13081524 -0.02577824 0.87700003 53 40 21
0.10938089 -0.0210113 0.87800002 59 44 23
0.11177906 -0.0210113 0.87800002 64 49 28
0.11417722 -0.0210113 0.87800002 66 51 30
0.12376989 -0.0210113 0.87800002 73 59 33
0.13576072 -0.0210113 0.87800002 72 57 36
0.1381589 -0.0210113 0.87800002 66 53 34
0.14055707 -0.0210113 0.87800002 67 52 33
0.14775157 -0.0210113 0.87800002 65 53 31
0.11165175 -0.016196497 0.87700003 76 61 38
0.12376989 -0.016214965 0.87800002 85 71 45
0.12602437 -0.016196497 0.87700003 81 67 41
0.13576072 -0.016214965 0.87800002 76 62 36
0.042184103 0.014944172 0.87700003 70 64 50
0.044579539 0.014944172 0.87700003 68 61 45
0.032639537 0.017359378 0.87800002 61 52 37
0.14071715 -0.054647814 0.87900007 66 52 26
0.15032074 -0.049846016 0.87900007 71 59 33
0.11670816 -0.045044217 0.87900007 60 48 26
0.11910906 -0.045044217 0.87900007 66 54 30
0.15512255 -0.045044217 0.87900007 71 57 31
0.10470366 -0.033039726 0.87900007 108 92 67
0.14551894 -0.033039726 0.87900007 57 44 25
0.14791985 -0.033039726 0.87900007 62 50 28
0.10710457 -0.030638827 0.87900007 70 55 32
0.13111356 -0.030638827 0.87900007 43 34 17
0.15272164 -0.030638827 0.87900007 68 53 32
0.15512255 -0.030638827 0.87900007 65 50 27
0.15752344 -0.030638827 0.87900007 63 49 23
0.15992434 -0.030638827 0.87900007 63 48 25
0.10710457 -0.025837028 0.87900007 58 47 27
0.13351445 -0.025837028 0.87900007 53 42 22
0.12150996 -0.02103523 0.87900007 70 56 30
0.14311805 -0.02103523 0.87900007 64 51 32
0.14551894 -0.02103523 0.87900007 64 51 32
0.15032074 -0.02103523 0.87900007 72 60 38
0.11190636 -0.01863433 0.87900007 70 55 34
0.11430726 -0.01863433 0.87900007 75 60 37
0.12631176 -0.01863433 0.87900007 80 66 40
0.10950547 -0.016233433 0.87900007 75 60 37
0.11430726 -0.016233433 0.87900007 75 61 35
0.12150996 -0.016233433 0.87900007 82 68 42
0.12871265 -0.016233433 0.87900007 77 63 37
0.13831624 -0.016233433 0.87900007 66 51 28
0.039879408 0.014978251 0.87900007 65 62 47
0.035077609 0.01737915 0.87900007 67 55 39
0.11924458 -0.059517246 0.88000005 81 65 39
0.15289539 -0.047499094 0.88000005 63 51 25
0.13606998 -0.042691831 0.88000005 65 51 25
0.13847362 -0.042691831 0.88000005 70 56 30
0.14808814 -0.042691831 0.88000005 71 57 31
0.15049176 -0.042691831 0.88000005 66 52 26
0.13126272 -0.035480943 0.88000005 40 31 14
0.15770265 -0.035480943 0.88000005 67 53 26
0.16010629 -0.035480943 0.88000005 70 56 30
0.16250992 -0.035480943 0.88000005 76 62 36
0.16491355 -0.035480943 0.88000005 72 57 38
0.10001554 -0.033077311 0.88000005 97 81 55
0.13126272 -0.033077311 0.88000005 42 33 16
0.14328088 -0.033077311 0.88000005 57 44 27
0.10963006 -0.030673681 0.88000005 74 62 38
0.13366635 -0.030673681 0.88000005 47 35 19
0.13606998 -0.030673681 0.88000005 51 39 23
0.14087725 -0.030673681 0.88000005 53 42 24
0.16250992 -0.030673681 0.88000005 74 59 36
0.10722642 -0.028270051 0.88000005 56 44 22
0.11203368 -0.025866421 0.88000005 59 51 30
0.12405183 -0.025866421 0.88000005 58 46 24
0.16250992 -0.025866421 0.88000005 77 63 37
0.13126272 -0.023462791 0.88000005 62 50 28
0.11684094 -0.021059161 0.88000005 66 51 28
0.12645547 -0.021059161 0.88000005 76 62 36
0.13126272 -0.021059161 0.88000005 75 60 37
0.13366635 -0.021059161 0.88000005 74 59 36
0.10963006 -0.018655531 0.88000005 66 51 30
0.12405183 -0.018655531 0.88000005 83 69 43
0.13606998 -0.018655531 0.88000005 75 60 39
0.13847362 -0.018655531 0.88000005 70 55 34
0.14087725 -0.018655531 0.88000005 71 56 35
0.14568451 -0.018655531 0.88000005 62 50 28
0.14808814 -0.018655531 0.88000005 66 54 32
0.11684094 -0.016251899 0.88000005 77 63 37
0.11924458 -0.016251899 0.88000005 82 68 42
0.13126272 -0.016251899 0.88000005 81 67 41
0.13366635 -0.016251899 0.88000005 79 65 39
0.059153814 0.012591662 0.88000005 69 62 46
0.037521143 0.014995292 0.88000005 62 58 46
0.047135666 0.014995292 0.88000005 75 68 50
0.14585005 -0.052365791 0.88100004 71 57 31
0.11456735 -0.045146704 0.88100004 61 49 25
0.15306914 -0.042740345 0.88100004 71 57 31
0.15066278 -0.040333986 0.88100004 67 52 29
0.12659916 -0.035521261 0.88100004 35 28 10
0.12900552 -0.035521261 0.88100004 40 33 15
0.1554755 -0.035521261 0.88100004 65 51 25
0.13381824 -0.033114899 0.88100004 41 32 15
0.15066278 -0.033114899 0.88100004 66 51 30
0.1554755 -0.033114899 0.88100004 62 47 24
0.15788186 -0.033114899 0.88100004 65 51 25
0.16028823 -0.033114899 0.88100004 66 51 28
0.112161 -0.030708538 0.88100004 46 35 13
0.11456735 -0.030708538 0.88100004 50 37 18
0.12900552 -0.030708538 0.88100004 40 31 14
0.13863097 -0.030708538 0.88100004 49 41 22
0.10975463 -0.028302178 0.88100004 63 52 30
0.13141188 -0.028302178 0.88100004 46 35 17
0.13381824 -0.028302178 0.88100004 45 34 16
0.14825642 -0.028302178 0.88100004 57 42 23
0.15066278 -0.028302178 0.88100004 57 42 21
0.15306914 -0.028302178 0.88100004 56 41 20
0.11456735 -0.025895815 0.88100004 59 48 28
0.11938008 -0.025895815 0.88100004 50 38 16
0.12178644 -0.025895815 0.88100004 56 44 22
0.13622461 -0.025895815 0.88100004 58 47 27
0.15066278 -0.025895815 0.88100004 63 50 31
0.15306914 -0.025895815 0.88100004 70 55 34
0.15788186 -0.025895815 0.88100004 74 60 34
0.16028823 -0.025895815 0.88100004 77 63 37
0.16510095 -0.025895815 0.88100004 70 57 40
0.10975463 -0.023489453 0.88100004 57 44 25
0.12659916 -0.023489453 0.88100004 72 57 34
0.12900552 -0.023489453 0.88100004 63 48 27
0.13381824 -0.023489453 0.88100004 61 49 27
0.15788186 -0.023489453 0.88100004 79 65 39
0.16028823 -0.023489453 0.88100004 79 65 39
0.16269459 -0.023489453 0.88100004 74 60 34
0.10734827 -0.021083092 0.88100004 55 43 21
0.11938008 -0.021083092 0.88100004 78 63 40
0.12900552 -0.021083092 0.88100004 69 55 29
0.15306914 -0.021083092 0.88100004 73 61 37
0.1554755 -0.021083092 0.88100004 80 65 42
0.15788186 -0.021083092 0.88100004 78 63 40
0.16028823 -0.021083092 0.88100004 71 55 32
0.11697371 -0.01867673 0.88100004 77 63 37
0.12178644 -0.01867673 0.88100004 80 66 40
0.12900552 -0.01867673 0.88100004 75 61 35
0.14344369 -0.01867673 0.88100004 64 49 28
0.15066278 -0.01867673 0.88100004 66 54 32
0.14103733 -0.016270369 0.88100004 67 52 31
0.14825642 -0.016270369 0.88100004 62 50 28
0.12659916 -0.013864008 0.88100004 78 64 38
0.12900552 -0.013864008 0.88100004 82 68 42
0.052001953 0.01260597 0.88100004 63 57 41
0.056814678 0.01260597 0.88100004 63 58 39
0.061627399 0.01260597 0.88100004 69 62 46
0.068846487 0.01260597 0.88100004 68 61 45
0.071252845 0.01260597 0.88100004 73 64 49
0.073659204 0.01260597 0.88100004 71 62 45
0.03515742 0.015012331 0.88100004 51 49 37
0.097944662 -0.050072845 0.88300002 49 38 18
0.10024284 -0.047607042 0.88200003 59 46 27
0.13156104 -0.042788859 0.88200003 66 51 28
0.13397014 -0.042788859 0.88200003 62 47 24
0.15565197 -0.042788859 0.88200003 71 57 31
0.14376932 -0.040425546 0.88300002 62 50 28
0.1460156 -0.040379766 0.88200003 63 51 29
0.1484247 -0.040379766 0.88200003 67 52 29
0.15324289 -0.040379766 0.88200003 66 51 28
0.15582845 -0.040425546 0.88300002 67 53 27
0.1606521 -0.040425546 0.88300002 74 59 36
0.16306393 -0.040425546 0.88300002 72 60 36
0.16547574 -0.040425546 0.88300002 77 66 44
0.16547574 -0.038013723 0.88300002 74 61 42
-0.049176615 -0.035601899 0.88300002 91 77 51
0.049708184 -0.035601899 0.88300002 76 61 40
0.052120008 -0.035601899 0.88300002 79 64 43
0.10276831 -0.035601899 0.88300002 94 80 54
0.12206291 -0.035601899 0.88300002 41 34 16
0.12433377 -0.03556158 0.88200003 37 30 12
0.13412203 -0.035601899 0.88300002 41 33 14
0.1460156 -0.03556158 0.88200003 58 45 28
0.1484247 -0.03556158 0.88200003 61 49 27
0.15083379 -0.03556158 0.88200003 67 52 31
0.15324289 -0.03556158 0.88200003 64 49 26
0.12688656 -0.033190075 0.88300002 36 29 11
0.12915196 -0.033152487 0.88200003 39 30 13
0.13637923 -0.033152487 0.88200003 40 31 14
0.13894568 -0.033190075 0.88300002 53 42 24
0.1413575 -0.033190075 0.88300002 56 45 27
0.15324289 -0.033152487 0.88200003 67 52 31
0.16287926 -0.033152487 0.88200003 71 56 33
0.16547574 -0.033190075 0.88300002 69 53 37
-0.058823913 -0.03077825 0.88300002 94 80 54
0.097833745 -0.030743396 0.88200003 71 57 31
0.11723926 -0.03077825 0.88300002 54 43 23
0.11951558 -0.030743396 0.88200003 53 45 24
0.12192468 -0.030743396 0.88200003 51 43 22
0.12447473 -0.03077825 0.88300002 45 37 18
0.12674285 -0.030743396 0.88200003 42 34 15
0.16528834 -0.030743396 0.88200003 75 59 43
0.11241561 -0.028366426 0.88300002 54 43 21
0.12192468 -0.028334303 0.88200003 50 39 19
0.12447473 -0.028366426 0.88300002 51 40 20
0.12674285 -0.028334303 0.88200003 53 42 24
0.12915196 -0.028334303 0.88200003 52 41 23
0.13637923 -0.028334303 0.88200003 49 38 20
0.13894568 -0.028366426 0.88300002 49 38 20
0.14376932 -0.028366426 0.88300002 55 44 26
0.1460156 -0.028334303 0.88200003 54 41 24
0.15565197 -0.028334303 0.88200003 68 53 30
0.15806107 -0.028334303 0.88200003 69 55 29
0.16047016 -0.028334303 0.88200003 77 63 37
0.16287926 -0.028334303 0.88200003 75 61 35
0.16547574 -0.028366426 0.88300002 76 60 44
0.06659095 -0.025954602 0.88300002 50 37 21
0.0810619 -0.025954602 0.88300002 75 60 41
0.083379187 -0.02592521 0.88200003 65 50 31
0.093015559 -0.02592521 0.88200003 70 55 34
0.095532842 -0.025954602 0.88300002 68 53 32
0.10506102 -0.02592521 0.88200003 60 48 26
0.11710649 -0.02592521 0.88200003 58 45 26
0.13894568 -0.025954602 0.88300002 55 42 25
0.1484247 -0.02592521 0.88200003 55 42 23
0.15565197 -0.02592521 0.88200003 74 60 34
0.10747012 -0.023516117 0.88200003 59 46 27
0.1122883 -0.023516117 0.88200003 56 43 24
0.1146974 -0.023516117 0.88200003 59 44 25
0.11723926 -0.023542777 0.88300002 62 47 26
0.12206291 -0.023542777 0.88300002 65 50 27
0.12447473 -0.023542777 0.88300002 74 59 36
0.13637923 -0.023516117 0.88200003 63 50 31
0.13878833 -0.023516117 0.88200003 63 50 31
0.1413575 -0.023542777 0.88300002 67 54 35
0.14859298 -0.023542777 0.88300002 60 48 26
0.15083379 -0.023516117 0.88200003 62 50 28
0.15324289 -0.023516117 0.88200003 74 62 38
0.15565197 -0.023516117 0.88200003 76 62 36
0.16528834 -0.023516117 0.88200003 71 60 42
0.10506102 -0.021107022 0.88200003 60 47 28
0.16287926 -0.021107022 0.88200003 70 55 34
0.16547574 -0.021130955 0.88300002 66 54 38
0.11965108 -0.018719129 0.88300002 81 67 41
0.13156104 -0.01869793 0.88200003 74 60 34
0.13397014 -0.01869793 0.88200003 77 62 39
0.15341662 -0.018719129 0.88300002 71 59 37
0.14376932 -0.016307306 0.88300002 64 49 28
0.14618115 -0.016307306 0.88300002 65 50 29
0.15083379 -0.016288837 0.88200003 56 44 22
0.11241561 -0.013895481 0.88300002 74 60 34
0.11482743 -0.013895481 0.88300002 74 60 34
0.12433377 -0.013879743 0.88200003 82 68 42
0.13653386 -0.013895481 0.88300002 75 59 34
0.13894568 -0.013895481 0.88300002 78 62 37
0.11965108 -0.011483657 0.88300002 67 53 27
0.12192468 -0.011470651 0.88200003 78 64 38
0.12433377 -0.011470651 0.88200003 83 69 43
0.12674285 -0.011470651 0.88200003 88 74 48
0.12915196 -0.011470651 0.88200003 87 71 46
0.11723926 -0.0066600079 0.88300002 72 58 32
0.10276831 0.0078109386 0.88300002 64 56 37
0.049651884 0.012620279 0.88200003 64 58 44
0.05447007 0.012620279 0.88200003 60 54 38
0.064106442 0.012620279 0.88200003 68 62 46
0.06659095 0.012634587 0.88300002 68 61 45
0.076238252 0.012634587 0.88300002 69 60 43
0.03282541 0.015046411 0.88300002 58 56 44
0.049651884 0.015029372 0.88200003 75 68 50
0.052120008 0.015046411 0.88300002 75 67 48
0.030379141 0.017438464 0.88200003 46 36 24
0.1077138 -0.062202331 0.88400006 80 68 46
0.098055586 -0.054958664 0.88400006 0 0 0
0.15359037 -0.050129555 0.88400006 70 54 28
0.15600492 -0.047714997 0.88400006 63 49 23
0.11254292 -0.045300443 0.88400006 65 53 31
0.15841947 -0.045300443 0.88400006 71 57 31
0.14151759 -0.04047133 0.88400006 62 50 28
0.16083403 -0.038056776 0.88400006 65 50 27
0.16324858 -0.038056776 0.88400006 69 54 31
-0.051646866 -0.035642218 0.88400006 93 79 53
-0.046817753 -0.035642218 0.88400006 96 82 56
-0.034744978 -0.035642218 0.88400006 91 77 51
-0.029915866 -0.035642218 0.88400006 94 80 54
0.10047014 -0.035642218 0.88400006 107 93 67
0.11978658 -0.035642218 0.88400006 43 35 16
0.13668847 -0.035642218 0.88400006 47 36 18
0.16807771 -0.035642218 0.88400006 64 55 38
-0.058890533 -0.033227663 0.88400006 95 81 55
-0.051646866 -0.033227663 0.88400006 99 85 59
-0.049232312 -0.033227663 0.88400006 95 81 55
0.1077138 -0.033227663 0.88400006 94 79 56
0.12220114 -0.033227663 0.88400006 46 38 19
-0.090279765 -0.030813107 0.88400006 91 77 51
-0.085450649 -0.030813107 0.88400006 89 75 49
-0.061305091 -0.030813107 0.88400006 94 80 54
0.052179031 -0.030813107 0.88400006 85 69 44
0.069080919 -0.028398553 0.88400006 62 46 30
0.10529925 -0.028398553 0.88400006 63 48 25
0.11495747 -0.028398553 0.88400006 59 48 28
0.11737203 -0.028398553 0.88400006 60 49 27
0.11978658 -0.028398553 0.88400006 55 44 22
0.14151759 -0.028398553 0.88400006 48 40 21
-0.09993799 -0.025983997 0.88400006 95 80 57
-0.097523428 -0.025983997 0.88400006 90 75 54
0.06425181 -0.025983997 0.88400006 53 40 23
0.069080919 -0.025983997 0.88400006 56 40 24
0.071495473 -0.025983997 0.88400006 63 47 31
0.078739144 -0.025983997 0.88400006 65 50 31
0.085982814 -0.025983997 0.88400006 67 52 31
0.088397369 -0.025983997 0.88400006 70 55 34
0.090811916 -0.025983997 0.88400006 72 57 36
0.14151759 -0.025983997 0.88400006 53 40 23
0.14393215 -0.025983997 0.88400006 52 39 22
0.1463467 -0.025983997 0.88400006 54 41 24
0.10529925 -0.02356944 0.88400006 58 45 26
0.11978658 -0.02356944 0.88400006 62 47 26
0.14393215 -0.02356944 0.88400006 64 51 32
0.1463467 -0.02356944 0.88400006 60 47 28
0.10288469 -0.021154884 0.88400006 65 50 31
0.1077138 -0.01874033 0.88400006 68 53 32
0.15600492 -0.01874033 0.88400006 68 56 34
0.15841947 -0.01874033 0.88400006 66 51 30
0.15359037 -0.016325774 0.88400006 54 39 16
0.11737203 -0.013911217 0.88400006 79 65 39
0.11978658 -0.013911217 0.88400006 77 63 37
0.12220114 -0.013911217 0.88400006 79 65 39
0.13185936 -0.013911217 0.88400006 81 67 41
0.13427392 -0.013911217 0.88400006 78 64 38
0.14151759 -0.013911217 0.88400006 78 64 38
0.11254292 -0.011496662 0.88400006 75 61 35
0.11495747 -0.011496662 0.88400006 74 60 34
0.11737203 -0.011496662 0.88400006 75 61 35
0.11978658 -0.0066675502 0.88400006 75 61 35
0.12220114 -0.0066675502 0.88400006 72 58 32
0.11737203 -0.0042529944 0.88400006 61 49 27
0.11495747 -0.0018384387 0.88400006 53 40 23
0.11737203 -0.0018384387 0.88400006 59 46 27
0.098055586 0.01023434 0.88400006 0 0 0
0.078739144 0.012648895 0.88400006 65 56 41
0.081153698 0.012648895 0.88400006 64 55 40
0.083568253 0.012648895 0.88400006 62 55 37
0.085982814 0.012648895 0.88400006 65 58 40
0.088397369 0.012648895 0.88400006 66 57 40
0.090811916 0.012648895 0.88400006 72 64 45
0.037691697 0.017478008 0.88400006 72 60 44
0.098166518 -0.059855409 0.88500005 0 0 0
0.049820766 -0.045351688 0.88500005 72 57 36
0.052238055 -0.045351688 0.88500005 75 63 41
-0.032366995 -0.040517114 0.88500005 94 80 54
-0.029949706 -0.040517114 0.88500005 94 80 54
-0.003359548 -0.040517114 0.88500005 86 72 46
-0.00094226102 -0.040517114 0.88500005 81 67 41
0.0014750262 -0.040517114 0.88500005 80 65 42
0.013561461 -0.040517114 0.88500005 83 68 45
0.015978748 -0.040517114 0.88500005 81 66 43
0.018396035 -0.040517114 0.88500005 79 64 41
0.078828216 -0.040517114 0.88500005 70 56 30
0.081245497 -0.040517114 0.88500005 72 58 32
0.083662786 -0.040517114 0.88500005 71 56 33
0.13200854 -0.040517114 0.88500005 59 47 25
0.15859869 -0.040517114 0.88500005 68 53 30
-0.044453427 -0.03568254 0.88500005 95 81 55
-0.042036142 -0.03568254 0.88500005 95 81 55
-0.039618853 -0.03568254 0.88500005 94 80 54
-0.037201568 -0.03568254 0.88500005 87 73 47
-0.032366995 -0.03568254 0.88500005 91 77 51
-0.0081941225 -0.03568254 0.88500005 91 77 50
-0.0057768351 -0.03568254 0.88500005 86 72 45
-0.003359548 -0.03568254 0.88500005 89 75 49
-0.00094226102 -0.03568254 0.88500005 88 74 48
0.0014750262 -0.03568254 0.88500005 81 66 43
0.0038923135 -0.03568254 0.88500005 78 63 42
0.030482473 -0.03568254 0.88500005 85 70 49
0.03289976 -0.03568254 0.88500005 85 70 49
0.05465534 -0.03568254 0.88500005 80 65 44
0.14409497 -0.03568254 0.88500005 58 47 29
-0.061374441 -0.033265252 0.88500005 89 75 49
-0.04687072 -0.033265252 0.88500005 95 81 55
0.049820766 -0.033265252 0.88500005 80 65 42
0.052238055 -0.033265252 0.88500005 82 67 46
0.1199221 -0.033265252 0.88500005 47 39 18
0.12475667 -0.033265252 0.88500005 42 34 15
-0.087964602 -0.030847965 0.88500005 92 78 52
-0.080712736 -0.030847965 0.88500005 93 78 55
-0.078295454 -0.030847965 0.88500005 90 76 50
-0.073460877 -0.030847965 0.88500005 97 83 57
-0.0686263 -0.030847965 0.88500005 93 79 53
-0.06379173 -0.030847965 0.88500005 95 81 55
-0.042036142 -0.030847965 0.88500005 91 77 51
0.049820766 -0.030847965 0.88500005 82 66 41
0.05465534 -0.030847965 0.88500005 86 70 47
0.059489917 -0.030847965 0.88500005 81 66 43
0.081245497 -0.030847965 0.88500005 69 54 35
0.083662786 -0.030847965 0.88500005 71 56 35
0.086080074 -0.030847965 0.88500005 73 58 35
0.088497363 -0.030847965 0.88500005 72 57 34
0.090914652 -0.030847965 0.88500005 70 55 32
0.09333194 -0.030847965 0.88500005 67 53 27
0.066741779 -0.028430678 0.88500005 55 42 25
0.086080074 -0.028430678 0.88500005 70 55 34
0.09333194 -0.028430678 0.88500005 70 55 32
0.10300109 -0.028430678 0.88500005 81 66 43
-0.10972018 -0.026013391 0.88500005 87 73 47
-0.10246832 -0.026013391 0.88500005 95 80 57
0.076410927 -0.026013391 0.88500005 67 52 33
0.098166518 -0.026013391 0.88500005 65 50 29
0.10300109 -0.026013391 0.88500005 62 47 26
0.088497363 -0.023596104 0.88500005 74 59 38
0.090914652 -0.023596104 0.88500005 70 55 34
0.09333194 -0.023596104 0.88500005 71 56 35
0.16101599 -0.018761529 0.88500005 65 50 29
-0.14839678 -0.016344242 0.88500005 108 94 68
0.10783567 -0.016344242 0.88500005 74 59 36
0.13200854 -0.011509666 0.88500005 83 67 42
0.11750481 -0.0090923794 0.88500005 74 60 34
0.1199221 -0.0090923794 0.88500005 75 61 35
0.12233939 -0.0090923794 0.88500005 77 63 37
0.11267024 0.0029940559 0.88500005 0 0 0
0.1005838 0.0078286305 0.88500005 65 58 40
0.10541838 0.0078286305 0.88500005 68 57 39
0.09333194 0.010245917 0.88500005 68 59 42
0.095749229 0.010245917 0.88500005 64 53 35
0.12247762 -0.059923045 0.88600004 80 66 40
0.098277435 -0.052662991 0.88600004 0 0 0
0.14909783 -0.052662991 0.88600004 71 59 33
-0.04208364 -0.045402933 0.88600004 99 85 59
-0.032403566 -0.045402933 0.88600004 93 79 53
0.015996804 -0.045402933 0.88600004 87 72 49
0.054717101 -0.045402933 0.88600004 80 68 46
0.16119792 -0.045402933 0.88600004 68 54 28
0.015996804 -0.042982914 0.88600004 80 65 42
0.12973768 -0.042982914 0.88600004 65 50 27
0.15877789 -0.042982914 0.88600004 73 59 33
-0.034823585 -0.040562894 0.88600004 96 82 56
-0.027563529 -0.040562894 0.88600004 92 78 52
0.0038967112 -0.040562894 0.88600004 79 64 41
0.0063167298 -0.040562894 0.88600004 81 66 43
0.0087367482 -0.040562894 0.88600004 80 65 42
0.076497272 -0.040562894 0.88600004 75 60 37
0.13941775 -0.040562894 0.88600004 61 50 28
0.16845797 -0.040562894 0.88600004 67 60 44
-0.029983547 -0.038142875 0.88600004 91 77 51
0.15635788 -0.038142875 0.88600004 65 51 25
0.15877789 -0.038142875 0.88600004 64 49 26
-0.085643977 -0.035722855 0.88600004 83 68 45
-0.056603752 -0.035722855 0.88600004 84 70 44
-0.054183733 -0.035722855 0.88600004 90 76 50
-0.027563529 -0.035722855 0.88600004 94 80 54
0.0063167298 -0.035722855 0.88600004 77 62 43
0.015996804 -0.035722855 0.88600004 81 66 43
0.018416822 -0.035722855 0.88600004 81 66 43
0.020836841 -0.035722855 0.88600004 86 71 48
0.035356954 -0.035722855 0.88600004 87 72 51
0.040196992 -0.035722855 0.88600004 85 70 47
0.042617008 -0.035722855 0.88600004 83 68 45
0.047457047 -0.035722855 0.88600004 78 63 40
0.081337303 -0.035722855 0.88600004 72 57 34
0.083757326 -0.035722855 0.88600004 72 57 34
0.086177342 -0.035722855 0.88600004 72 57 36
0.10553749 -0.035722855 0.88600004 70 56 30
0.11763758 -0.035722855 0.88600004 45 37 18
0.14183778 -0.035722855 0.88600004 54 43 23
-0.056603752 -0.03330284 0.88600004 86 72 46
-0.04208364 -0.03330284 0.88600004 93 79 53
-0.03966362 -0.03330284 0.88600004 91 77 51
-0.037243601 -0.03330284 0.88600004 87 73 47
0.054717101 -0.03330284 0.88600004 82 67 46
0.086177342 -0.03330284 0.88600004 72 57 34
0.098277435 -0.03330284 0.88600004 85 69 44
0.11037753 -0.03330284 0.88600004 78 66 44
-0.10016409 -0.03088282 0.88600004 89 74 55
-0.097744063 -0.03088282 0.88600004 86 71 50
-0.095324047 -0.03088282 0.88600004 92 77 54
-0.092904031 -0.03088282 0.88600004 89 75 49
-0.083223954 -0.03088282 0.88600004 89 74 51
-0.075963899 -0.03088282 0.88600004 92 78 52
-0.071123861 -0.03088282 0.88600004 95 81 55
-0.056603752 -0.03088282 0.88600004 97 83 57
-0.049343694 -0.03088282 0.88600004 95 81 55
-0.046923678 -0.03088282 0.88600004 95 81 55
-0.03966362 -0.03088282 0.88600004 91 77 51
-0.037243601 -0.03088282 0.88600004 91 77 51
0.015996804 -0.03088282 0.88600004 81 67 41
0.057137121 -0.03088282 0.88600004 85 69 46
0.061977159 -0.03088282 0.88600004 81 66 45
0.064397179 -0.03088282 0.88600004 78 63 44
0.06923721 -0.03088282 0.88600004 64 49 30
0.078917287 -0.03088282 0.88600004 63 48 29
0.095857419 -0.03088282 0.88600004 63 49 23
-0.1025841 -0.028462801 0.88600004 91 76 55
-0.10016409 -0.028462801 0.88600004 92 77 56
-0.097744063 -0.028462801 0.88600004 88 73 50
-0.090484008 -0.028462801 0.88600004 92 78 52
-0.088063993 -0.028462801 0.88600004 86 72 46
0.071657233 -0.028462801 0.88600004 70 54 38
0.078917287 -0.028462801 0.88600004 61 46 27
0.081337303 -0.028462801 0.88600004 70 55 36
0.083757326 -0.028462801 0.88600004 69 54 35
0.088597365 -0.028462801 0.88600004 70 55 34
0.09101738 -0.028462801 0.88600004 75 60 37
-0.10742414 -0.026042782 0.88600004 86 71 48
-0.095324047 -0.026042782 0.88600004 91 76 53
0.074077249 -0.026042782 0.88600004 67 52 33
0.10069746 -0.026042782 0.88600004 58 43 22
0.095857419 -0.023622764 0.88600004 71 56 37
-0.13888438 -0.021202747 0.88600004 90 75 52
0.10069746 -0.021202747 0.88600004 68 52 36
-0.14614443 -0.018782729 0.88600004 93 81 55
-0.1413044 -0.018782729 0.88600004 94 79 56
0.10553749 -0.018782729 0.88600004 69 54 33
-0.15098448 -0.01636271 0.88600004 96 82 56
0.15635788 -0.01636271 0.88600004 58 46 22
0.11037753 -0.013942691 0.88600004 74 59 36
0.14425778 -0.013942691 0.88600004 74 59 36
0.14667781 -0.013942691 0.88600004 74 59 38
0.14183778 -0.011522673 0.88600004 79 65 39
0.14425778 -0.011522673 0.88600004 77 62 39
0.11521757 -0.0066826348 0.88600004 70 55 32
0.11521757 -0.0042626164 0.88600004 53 40 21
0.12005761 -0.0042626164 0.88600004 61 49 25
0.12005761 -0.001842598 0.88600004 60 48 26
0.10795751 0.0054174578 0.88600004 56 47 30
0.11037753 0.0054174578 0.88600004 0 0 0
0.093437396 0.012677513 0.88600004 73 65 44
0.054717101 0.015097531 0.88600004 76 68 47
0.098388359 -0.057567924 0.88700002 0 0 0
0.14442061 -0.055145174 0.88700002 76 62 36
-0.00094439043 -0.050299674 0.88700002 92 77 54
0.052356105 -0.047876924 0.88700002 78 66 44
-0.046976641 -0.045454174 0.88700002 91 77 51
-0.044553891 -0.045454174 0.88700002 93 79 53
-0.039708391 -0.045454174 0.88700002 95 81 55
-0.037285641 -0.045454174 0.88700002 93 79 53
-0.034862891 -0.045454174 0.88700002 96 82 56
-0.030017391 -0.045454174 0.88700002 92 78 52
-0.027594641 -0.045454174 0.88700002 91 77 51
-0.0033671404 -0.045454174 0.88700002 86 72 46
0.013592109 -0.045454174 0.88700002 84 69 46
0.018437609 -0.045454174 0.88700002 86 71 48
0.028128607 -0.045454174 0.88700002 79 65 39
0.042665109 -0.045454174 0.88700002 78 63 42
0.045087859 -0.045454174 0.88700002 78 63 44
0.047510609 -0.045454174 0.88700002 79 64 43
0.059624355 -0.045454174 0.88700002 71 59 37
0.11050211 -0.045454174 0.88700002 64 53 31
0.16380261 -0.045454174 0.88700002 83 68 45
0.16622536 -0.045454174 0.88700002 82 67 44
0.013592109 -0.043031428 0.88700002 83 68 45
0.018437609 -0.043031428 0.88700002 78 63 40
0.12746136 -0.043031428 0.88700002 61 49 25
0.16137986 -0.043031428 0.88700002 74 60 34
0.16380261 -0.043031428 0.88700002 73 61 37
0.16622536 -0.043031428 0.88700002 76 64 40
-0.044553891 -0.040608678 0.88700002 93 79 53
-0.039708391 -0.040608678 0.88700002 95 81 55
-0.022749141 -0.040608678 0.88700002 83 69 43
0.011169359 -0.040608678 0.88700002 85 70 47
0.020860359 -0.040608678 0.88700002 81 66 43
0.062047105 -0.040608678 0.88700002 61 50 30
0.064469859 -0.040608678 0.88700002 50 42 23
0.074160859 -0.040608678 0.88700002 68 53 32
0.13472961 -0.040608678 0.88700002 61 48 29
0.13715236 -0.040608678 0.88700002 62 50 28
-0.049399391 -0.038185928 0.88700002 89 75 49
-0.046976641 -0.038185928 0.88700002 88 74 48
-0.044553891 -0.038185928 0.88700002 98 84 58
-0.032440141 -0.038185928 0.88700002 93 79 53
-0.0033671404 -0.038185928 0.88700002 76 62 36
-0.00094439043 -0.038185928 0.88700002 80 65 42
0.0014783595 -0.038185928 0.88700002 81 66 43
0.049933359 -0.038185928 0.88700002 77 62 39
0.079006359 -0.038185928 0.88700002 69 54 31
0.081429109 -0.038185928 0.88700002 73 58 35
0.083851859 -0.038185928 0.88700002 72 57 34
0.12019311 -0.038185928 0.88700002 46 38 17
0.12261586 -0.038185928 0.88700002 43 36 17
0.12503861 -0.038185928 0.88700002 41 34 15
0.13230686 -0.038185928 0.88700002 42 34 15
0.14926611 -0.038185928 0.88700002 64 49 28
0.15168886 -0.038185928 0.88700002 64 49 26
0.15411161 -0.038185928 0.88700002 67 52 29
0.16864811 -0.038185928 0.88700002 63 54 37
-0.088163391 -0.035763178 0.88700002 83 69 43
-0.061513141 -0.035763178 0.88700002 93 79 53
-0.059090391 -0.035763178 0.88700002 86 72 46
-0.025171891 -0.035763178 0.88700002 89 75 49
-0.020326389 -0.035763178 0.88700002 82 68 42
-0.01063539 -0.035763178 0.88700002 92 78 51
0.00874661 -0.035763178 0.88700002 81 66 45
0.013592109 -0.035763178 0.88700002 85 70 47
0.023283107 -0.035763178 0.88700002 85 70 47
0.025705857 -0.035763178 0.88700002 79 64 41
0.028128607 -0.035763178 0.88700002 82 67 44
0.037819609 -0.035763178 0.88700002 81 66 43
0.045087859 -0.035763178 0.88700002 82 67 44
0.057201605 -0.035763178 0.88700002 81 66 45
0.059624355 -0.035763178 0.88700002 75 60 39
0.071738109 -0.035763178 0.88700002 53 40 21
0.074160859 -0.035763178 0.88700002 65 50 31
0.076583609 -0.035763178 0.88700002 65 50 31
0.079006359 -0.035763178 0.88700002 66 51 30
0.13957511 -0.035763178 0.88700002 51 40 22
-0.085740641 -0.033340428 0.88700002 89 74 51
-0.063935891 -0.033340428 0.88700002 90 76 50
-0.054244891 -0.033340428 0.88700002 92 78 52
-0.044553891 -0.033340428 0.88700002 91 77 51
-0.034862891 -0.033340428 0.88700002 90 76 50
0.0039011093 -0.033340428 0.88700002 76 61 38
0.0063238596 -0.033340428 0.88700002 78 63 40
0.016014859 -0.033340428 0.88700002 85 71 45
0.018437609 -0.033340428 0.88700002 80 66 40
0.020860359 -0.033340428 0.88700002 83 69 43
0.030551357 -0.033340428 0.88700002 88 73 50
0.032974109 -0.033340428 0.88700002 85 70 47
0.035396859 -0.033340428 0.88700002 86 71 48
0.047510609 -0.033340428 0.88700002 81 67 41
0.057201605 -0.033340428 0.88700002 82 67 46
0.088697359 -0.033340428 0.88700002 72 57 34
0.11292486 -0.033340428 0.88700002 58 45 26
0.11534761 -0.033340428 0.88700002 49 38 20
0.11777036 -0.033340428 0.88700002 49 41 22
0.16864811 -0.033340428 0.88700002 61 52 37
-0.066358641 -0.030917676 0.88700002 98 84 58
-0.051822141 -0.030917676 0.88700002 97 83 57
-0.044553891 -0.030917676 0.88700002 90 76 50
-0.034862891 -0.030917676 0.88700002 98 84 58
0.0014783595 -0.030917676 0.88700002 78 63 40
0.0039011093 -0.030917676 0.88700002 75 60 37
0.0063238596 -0.030917676 0.88700002 78 63 40
0.018437609 -0.030917676 0.88700002 82 68 42
0.020860359 -0.030917676 0.88700002 80 66 40
0.023283107 -0.030917676 0.88700002 86 72 46
0.025705857 -0.030917676 0.88700002 83 68 45
0.035396859 -0.030917676 0.88700002 85 71 45
0.040242359 -0.030917676 0.88700002 89 75 49
0.047510609 -0.030917676 0.88700002 78 64 37
0.066892609 -0.030917676 0.88700002 70 55 36
0.071738109 -0.030917676 0.88700002 60 45 26
0.074160859 -0.030917676 0.88700002 60 44 28
0.076583609 -0.030917676 0.88700002 58 43 24
0.16864811 -0.030917676 0.88700002 64 55 40
-0.10512264 -0.028494928 0.88700002 88 73 52
-0.095431641 -0.028494928 0.88700002 88 73 50
-0.093008891 -0.028494928 0.88700002 91 77 51
-0.085740641 -0.028494928 0.88700002 87 73 47
0.064469859 -0.028494928 0.88700002 64 51 34
0.074160859 -0.028494928 0.88700002 64 49 30
0.076583609 -0.028494928 0.88700002 63 48 29
0.095965609 -0.028494928 0.88700002 69 54 31
0.098388359 -0.028494928 0.88700002 60 45 22
0.10081111 -0.028494928 0.88700002 70 55 32
-0.10512264 -0.026072178 0.88700002 93 78 55
0.062047105 -0.026072178 0.88700002 48 35 16
0.16864811 -0.026072178 0.88700002 69 60 45
0.083851859 -0.023649428 0.88700002 65 50 29
0.086274609 -0.023649428 0.88700002 70 55 34
0.098388359 -0.023649428 0.88700002 65 50 31
0.10323386 -0.023649428 0.88700002 56 43 24
-0.14146389 -0.021226678 0.88700002 98 83 60
-0.13661839 -0.021226678 0.88700002 83 68 45
0.098388359 -0.021226678 0.88700002 71 56 37
-0.14388664 -0.018803928 0.88700002 86 72 46
-0.13904114 -0.018803928 0.88700002 89 74 51
-0.13661839 -0.018803928 0.88700002 82 67 44
0.16380261 -0.018803928 0.88700002 62 51 33
-0.15357764 -0.016381178 0.88700002 95 80 57
0.15895711 -0.016381178 0.88700002 53 41 19
0.14926611 -0.013958427 0.88700002 69 54 33
0.15168886 -0.013958427 0.88700002 72 57 36
0.13472961 -0.011535677 0.88700002 76 60 35
0.13715236 -0.011535677 0.88700002 78 62 37
0.13957511 -0.011535677 0.88700002 79 65 39
0.14684336 -0.011535677 0.88700002 71 57 31
0.11534761 -0.0091129281 0.88700002 72 58 32
0.12503861 -0.0091129281 0.88700002 79 65 39
0.11534761 0.00057807221 0.88700002 63 50 33
0.10807936 0.0078463219 0.88700002 63 52 34
0.10081111 0.010269072 0.88700002 73 62 42
0.0014800262 -0.050356381 0.88800007 89 74 51
0.018458394 -0.050356381 0.88800007 85 70 47
0.028160321 -0.050356381 0.88800007 87 73 47
0.15671083 -0.050356381 0.88800007 76 60 35
0.049989656 -0.0479309 0.88800007 82 67 46
0.054840617 -0.0479309 0.88800007 79 67 45
-0.054306041 -0.045505419 0.88800007 90 76 50
-0.051880561 -0.045505419 0.88800007 90 76 50
-0.025200268 -0.045505419 0.88800007 86 72 46
-0.022774788 -0.045505419 0.88800007 87 73 47
-0.020349307 -0.045505419 0.88800007 90 76 50
-0.017923824 -0.045505419 0.88800007 89 74 51
-0.0082218992 -0.045505419 0.88800007 84 69 46
-0.0057964176 -0.045505419 0.88800007 88 74 48
-0.0009454551 -0.045505419 0.88800007 84 69 46
0.0063309888 -0.045505419 0.88800007 80 65 42
0.0087564699 -0.045505419 0.88800007 87 72 49
0.011181952 -0.045505419 0.88800007 83 68 45
0.020883877 -0.045505419 0.88800007 81 66 43
0.023309357 -0.045505419 0.88800007 75 60 37
0.025734838 -0.045505419 0.88800007 78 64 38
0.030585801 -0.045505419 0.88800007 80 66 40
0.040287726 -0.045505419 0.88800007 75 60 39
0.057266098 -0.045505419 0.88800007 75 63 41
0.062117063 -0.045505419 0.88800007 64 52 30
0.081520915 -0.045505419 0.88800007 75 59 34
0.083946392 -0.045505419 0.88800007 79 63 38
0.1082012 -0.045505419 0.88800007 63 52 30
-0.032476712 -0.043079942 0.88800007 95 81 55
-0.027625751 -0.043079942 0.88800007 93 79 53
0.020883877 -0.043079942 0.88800007 79 64 41
0.04271321 -0.043079942 0.88800007 82 67 46
0.049989656 -0.043079942 0.88800007 79 64 43
0.052415136 -0.043079942 0.88800007 80 65 44
0.054840617 -0.043079942 0.88800007 80 65 44
0.076669946 -0.043079942 0.88800007 73 58 35
0.081520915 -0.043079942 0.88800007 74 58 33
0.083946392 -0.043079942 0.88800007 75 61 35
0.12275409 -0.043079942 0.88800007 57 45 23
-0.04945508 -0.040654458 0.88800007 86 72 46
-0.0470296 -0.040654458 0.88800007 92 78 52
-0.042178638 -0.040654458 0.88800007 93 79 53
-0.037327677 -0.040654458 0.88800007 93 79 53
-0.025200268 -0.040654458 0.88800007 85 71 45
-0.0082218992 -0.040654458 0.88800007 92 78 52
-0.0057964176 -0.040654458 0.88800007 85 71 44
0.023309357 -0.040654458 0.88800007 78 63 40
0.04271321 -0.040654458 0.88800007 78 63 42
0.045138691 -0.040654458 0.88800007 75 60 39
0.047564175 -0.040654458 0.88800007 78 63 42
0.049989656 -0.040654458 0.88800007 77 62 41
0.052415136 -0.040654458 0.88800007 81 66 45
0.054840617 -0.040654458 0.88800007 81 66 45
0.059691582 -0.040654458 0.88800007 70 57 38
0.069393508 -0.040654458 0.88800007 57 46 26
0.071818985 -0.040654458 0.88800007 55 44 24
0.086371876 -0.040654458 0.88800007 73 58 35
0.12760505 -0.040654458 0.88800007 44 33 13
0.13003053 -0.040654458 0.88800007 48 37 17
-0.034902193 -0.038228977 0.88800007 96 82 56
-0.027625751 -0.038228977 0.88800007 94 80 54
0.0039055075 -0.038228977 0.88800007 78 63 40
0.016032914 -0.038228977 0.88800007 82 67 44
0.018458394 -0.038228977 0.88800007 80 65 42
0.052415136 -0.038228977 0.88800007 79 64 43
0.071818985 -0.038228977 0.88800007 53 42 24
0.074244469 -0.038228977 0.88800007 69 56 37
0.076669946 -0.038228977 0.88800007 71 58 39
0.086371876 -0.038228977 0.88800007 71 56 33
0.12760505 -0.038228977 0.88800007 39 32 13
0.13003053 -0.038228977 0.88800007 39 31 12
0.1348815 -0.038228977 0.88800007 52 41 23
0.1470089 -0.038228977 0.88800007 60 47 28
-0.08341182 -0.035803497 0.88800007 82 67 46
-0.064007968 -0.035803497 0.88800007 88 74 48
-0.022774788 -0.035803497 0.88800007 86 72 46
-0.017923824 -0.035803497 0.88800007 91 77 51
0.011181952 -0.035803497 0.88800007 84 69 46
0.062117063 -0.035803497 0.88800007 71 59 37
0.069393508 -0.035803497 0.88800007 57 44 25
0.088797353 -0.035803497 0.88800007 70 55 32
0.098499276 -0.035803497 0.88800007 68 54 28
0.11547764 -0.035803497 0.88800007 46 38 19
-0.08341182 -0.033378016 0.88800007 84 69 46
-0.032476712 -0.033378016 0.88800007 92 78 52
-0.0009454551 -0.033378016 0.88800007 85 71 45
0.0014800262 -0.033378016 0.88800007 79 65 39
0.013607432 -0.033378016 0.88800007 84 69 46
0.023309357 -0.033378016 0.88800007 81 67 41
0.025734838 -0.033378016 0.88800007 78 63 40
0.037862245 -0.033378016 0.88800007 83 68 45
0.040287726 -0.033378016 0.88800007 84 70 44
0.04271321 -0.033378016 0.88800007 84 70 44
0.059691582 -0.033378016 0.88800007 77 62 39
0.081520915 -0.033378016 0.88800007 74 59 38
0.083946392 -0.033378016 0.88800007 71 56 35
0.093648314 -0.033378016 0.88800007 66 52 26
-0.054306041 -0.030952534 0.88800007 98 84 58
-0.0009454551 -0.030952534 0.88800007 80 66 40
0.011181952 -0.030952534 0.88800007 76 62 36
0.013607432 -0.030952534 0.88800007 79 65 39
0.030585801 -0.030952534 0.88800007 81 66 43
0.037862245 -0.030952534 0.88800007 80 66 40
0.04271321 -0.030952534 0.88800007 85 71 45
-0.07370989 -0.028527053 0.88800007 99 85 59
-0.059157006 -0.028527053 0.88800007 94 80 54
0.052415136 -0.028527053 0.88800007 89 73 48
-0.09311375 -0.026101572 0.88800007 90 76 50
-0.090688266 -0.026101572 0.88800007 92 78 52
-0.11736856 -0.02367609 0.88800007 93 79 52
0.10092476 -0.02367609 0.88800007 60 45 26
-0.14647433 -0.021250607 0.88800007 85 71 45
-0.14404885 -0.021250607 0.88800007 93 79 53
-0.13434693 -0.021250607 0.88800007 83 68 45
-0.12949596 -0.021250607 0.88800007 102 88 62
-0.12707049 -0.021250607 0.88800007 99 85 59
0.093648314 -0.021250607 0.88800007 81 66 43
0.16156179 -0.016399644 0.88800007 54 42 20
0.14943439 -0.011548682 0.88800007 74 59 36
0.15185986 -0.011548682 0.88800007 69 54 31
0.12760505 -0.0091232015 0.88800007 77 63 37
0.12517957 -0.0066977199 0.88800007 71 56 33
0.12275409 -0.0042722388 0.88800007 69 54 31
0.11305217 -0.0018467574 0.88800007 0 0 0
0.11305217 0.00057872391 0.88800007 0 0 0
0.11790313 0.00057872391 0.88800007 65 53 31
0.11062668 0.0030042052 0.88800007 0 0 0
0.11547764 0.0030042052 0.88800007 67 54 35
0.030585801 0.015131612 0.88800007 120 116 105
0.057266098 0.015131612 0.88800007 70 62 41
0.27344152 -0.29080614 0.88900006 182 182 180
0.11075127 -0.062554158 0.88900006 81 69 47
-0.01794401 -0.050413091 0.88900006 92 78 52
-0.015515797 -0.050413091 0.88900006 93 81 55
-0.0033747326 -0.050413091 0.88900006 93 79 53
0.0039099059 -0.050413091 0.88900006 86 71 48
0.016050968 -0.050413091 0.88900006 87 72 49
0.020907395 -0.050413091 0.88900006 83 68 45
0.023335608 -0.050413091 0.88900006 90 75 52
0.033048458 -0.050413091 0.88900006 82 68 42
0.045189522 -0.050413091 0.88900006 84 69 46
0.047617733 -0.050413091 0.88900006 85 70 47
0.050045948 -0.050413091 0.88900006 84 69 46
0.05247416 -0.050413091 0.88900006 84 69 46
0.062187012 -0.050413091 0.88900006 73 61 37
0.064615227 -0.050413091 0.88900006 78 66 44
-0.047082562 -0.047984879 0.88900006 89 75 49
-0.044654351 -0.047984879 0.88900006 88 74 48
-0.042226136 -0.047984879 0.88900006 91 79 53
-0.020372221 -0.047984879 0.88900006 92 78 52
-0.01794401 -0.047984879 0.88900006 88 74 48
0.016050968 -0.047984879 0.88900006 87 72 49
0.018479181 -0.047984879 0.88900006 83 68 45
0.028192032 -0.047984879 0.88900006 80 66 40
0.098610207 -0.047984879 0.88900006 67 54 37
0.15931553 -0.047984879 0.88900006 72 58 32
-0.056795415 -0.045556664 0.88900006 90 76 50
-0.049510773 -0.045556664 0.88900006 90 76 50
-0.015515797 -0.045556664 0.88900006 84 69 46
0.001481693 -0.045556664 0.88900006 82 67 44
0.0039099059 -0.045556664 0.88900006 83 68 45
0.037904885 -0.045556664 0.88900006 75 60 39
0.064615227 -0.045556664 0.88900006 66 54 32
0.10103842 -0.045556664 0.88900006 70 55 34
0.10346663 -0.045556664 0.88900006 69 54 33
0.10589485 -0.045556664 0.88900006 63 51 27
-0.044654351 -0.043128453 0.88900006 93 79 53
-0.042226136 -0.043128453 0.88900006 97 83 57
-0.034941498 -0.043128453 0.88900006 93 79 53
-0.030085072 -0.043128453 0.88900006 95 81 55
-0.022800434 -0.043128453 0.88900006 82 67 44
0.0063381181 -0.043128453 0.88900006 84 69 46
0.0087663308 -0.043128453 0.88900006 83 69 43
0.011194544 -0.043128453 0.88900006 83 68 45
0.045189522 -0.043128453 0.88900006 80 65 44
0.047617733 -0.043128453 0.88900006 78 63 42
0.074328072 -0.043128453 0.88900006 70 55 32
0.12532055 -0.043128453 0.88900006 61 49 25
-0.01794401 -0.040700238 0.88900006 84 69 46
-0.013087584 -0.040700238 0.88900006 90 76 50
-0.010659371 -0.040700238 0.88900006 91 77 51
0.037904885 -0.040700238 0.88900006 72 57 36
0.040333096 -0.040700238 0.88900006 79 64 43
0.057330586 -0.040700238 0.88900006 73 60 41
0.067043439 -0.040700238 0.88900006 57 49 30
0.12289234 -0.040700238 0.88900006 47 36 16
0.12532055 -0.040700238 0.88900006 45 34 14
-0.085933968 -0.038272027 0.88900006 80 68 44
-0.051938988 -0.038272027 0.88900006 93 79 53
-0.042226136 -0.038272027 0.88900006 96 82 56
-0.025228648 -0.038272027 0.88900006 87 73 47
-0.010659371 -0.038272027 0.88900006 89 75 49
-0.0082311584 -0.038272027 0.88900006 91 77 51
-0.0058029457 -0.038272027 0.88900006 85 71 45
0.0063381181 -0.038272027 0.88900006 78 63 42
0.013622756 -0.038272027 0.88900006 84 69 46
0.047617733 -0.038272027 0.88900006 77 62 39
0.054902371 -0.038272027 0.88900006 81 66 45
0.06947165 -0.038272027 0.88900006 54 43 25
0.11803591 -0.038272027 0.88900006 46 38 19
-0.090790384 -0.035843816 0.88900006 84 70 44
-0.078649327 -0.035843816 0.88900006 82 67 46
-0.013087584 -0.035843816 0.88900006 86 72 46
0.064615227 -0.035843816 0.88900006 61 49 27
0.11317948 -0.035843816 0.88900006 42 31 11
-0.090790384 -0.033415601 0.88900006 92 78 52
-0.08836218 -0.033415601 0.88900006 93 79 53
-0.081077538 -0.033415601 0.88900006 87 72 49
-0.078649327 -0.033415601 0.88900006 81 66 43
-0.068936475 -0.033415601 0.88900006 89 75 49
-0.066508263 -0.033415601 0.88900006 92 78 52
-0.030085072 -0.033415601 0.88900006 88 74 48
-0.020372221 -0.033415601 0.88900006 87 73 47
-0.010659371 -0.033415601 0.88900006 86 72 45
-0.0082311584 -0.033415601 0.88900006 87 73 46
-0.0058029457 -0.033415601 0.88900006 81 67 41
-0.0033747326 -0.033415601 0.88900006 86 72 46
0.011194544 -0.033415601 0.88900006 74 59 36
0.045189522 -0.033415601 0.88900006 81 67 41
0.06947165 -0.033415601 0.88900006 64 49 30
0.071899861 -0.033415601 0.88900006 62 47 28
0.074328072 -0.033415601 0.88900006 64 48 32
0.076756291 -0.033415601 0.88900006 61 46 27
0.079184502 -0.033415601 0.88900006 67 52 31
0.091325566 -0.033415601 0.88900006 67 52 29
-0.032513287 -0.030987389 0.88900006 91 77 51
-0.022800434 -0.030987389 0.88900006 86 72 46
-0.020372221 -0.030987389 0.88900006 88 74 48
-0.01794401 -0.030987389 0.88900006 90 76 50
0.0087663308 -0.030987389 0.88900006 75 61 35
0.028192032 -0.030987389 0.88900006 81 66 43
0.033048458 -0.030987389 0.88900006 83 68 45
0.045189522 -0.030987389 0.88900006 82 68 42
-0.08350575 -0.028559176 0.88900006 93 79 53
-0.081077538 -0.028559176 0.88900006 94 80 54
-0.078649327 -0.028559176 0.88900006 96 82 56
-0.071364686 -0.028559176 0.88900006 103 89 63
-0.068936475 -0.028559176 0.88900006 94 80 53
-0.061651837 -0.028559176 0.88900006 95 81 55
0.054902371 -0.028559176 0.88900006 91 75 50
0.057330586 -0.028559176 0.88900006 90 76 50
0.062187012 -0.028559176 0.88900006 76 64 42
-0.11992894 -0.02370275 0.88900006 95 81 54
0.06947165 -0.02370275 0.88900006 58 42 26
0.079184502 -0.02370275 0.88900006 72 57 34
0.081612714 -0.02370275 0.88900006 69 54 33
-0.14906749 -0.021274539 0.88900006 96 82 56
-0.12478536 -0.021274539 0.88900006 99 85 59
-0.12235715 -0.021274539 0.88900006 97 83 57
-0.11992894 -0.021274539 0.88900006 97 83 56
0.091325566 -0.021274539 0.88900006 80 65 42
0.096181996 -0.021274539 0.88900006 76 61 40
-0.15149571 -0.018846327 0.88900006 92 78 52
-0.14906749 -0.018846327 0.88900006 117 103 77
0.10346663 -0.018846327 0.88900006 72 57 36
0.16417195 -0.016418114 0.88900006 56 47 30
0.1544591 -0.013989901 0.88900006 73 61 39
0.15688731 -0.013989901 0.88900006 71 59 37
0.15931553 -0.013989901 0.88900006 68 56 34
0.1544591 -0.011561689 0.88900006 71 56 33
0.15688731 -0.011561689 0.88900006 68 56 32
0.13017698 -0.0091334749 0.88900006 76 60 35
0.11317948 -0.0067052622 0.88900006 69 57 35
0.11317948 0.0054358011 0.88900006 68 55 38
0.096181996 0.012720439 0.88900006 75 64 42
0.059758797 0.015148652 0.88900006 71 63 44
0.040333096 0.017576864 0.88900006 76 64 48
-0.042273633 -0.050469801 0.89000005 88 76 50
-0.020395137 -0.050469801 0.89000005 90 76 50
-0.013102305 -0.050469801 0.89000005 85 73 49
-0.01067136 -0.050469801 0.89000005 87 75 51
0.01363808 -0.050469801 0.89000005 98 83 60
0.025792802 -0.050469801 0.89000005 90 76 50
0.030654689 -0.050469801 0.89000005 88 74 48
0.042809408 -0.050469801 0.89000005 86 71 48
0.054964129 -0.050469801 0.89000005 76 64 40
0.057395071 -0.050469801 0.89000005 76 64 40
0.059826016 -0.050469801 0.89000005 68 56 32
-0.037411746 -0.048038855 0.89000005 90 76 50
-0.034980804 -0.048038855 0.89000005 96 80 55
-0.032549858 -0.048038855 0.89000005 91 77 51
-0.015533249 -0.048038855 0.89000005 90 75 52
-0.0033785284 -0.048038855 0.89000005 90 75 52
-0.00094758451 -0.048038855 0.89000005 90 75 52
0.01363808 -0.048038855 0.89000005 92 77 54
0.025792802 -0.048038855 0.89000005 83 69 43
0.030654689 -0.048038855 0.89000005 85 71 45
0.042809408 -0.048038855 0.89000005 82 67 46
0.047671296 -0.048038855 0.89000005 79 64 43
-0.013102305 -0.04560791 0.89000005 87 72 49
-0.01067136 -0.04560791 0.89000005 83 68 45
0.033085633 -0.04560791 0.89000005 76 62 36
0.071980737 -0.04560791 0.89000005 67 52 29
0.079273567 -0.04560791 0.89000005 80 64 39
0.086566404 -0.04560791 0.89000005 79 63 38
0.098721124 -0.04560791 0.89000005 73 58 37
-0.047135524 -0.043176968 0.89000005 91 77 51
-0.039842691 -0.043176968 0.89000005 95 81 55
-0.037411746 -0.043176968 0.89000005 95 81 55
-0.025257025 -0.043176968 0.89000005 86 72 46
-0.0082404166 -0.043176968 0.89000005 85 70 47
-0.0033785284 -0.043176968 0.89000005 83 69 43
-0.00094758451 -0.043176968 0.89000005 84 69 46
0.0014833596 -0.043176968 0.89000005 80 65 42
0.0039143041 -0.043176968 0.89000005 86 71 48
0.023361856 -0.043176968 0.89000005 76 61 38
0.025792802 -0.043176968 0.89000005 76 61 38
0.028223746 -0.043176968 0.89000005 81 66 43
0.040378466 -0.043176968 0.89000005 74 59 38
0.059826016 -0.043176968 0.89000005 66 51 32
0.064687908 -0.043176968 0.89000005 55 44 26
0.079273567 -0.043176968 0.89000005 73 57 32
0.11816868 -0.043176968 0.89000005 54 43 21
0.12059963 -0.043176968 0.89000005 54 42 20
-0.051997412 -0.040746022 0.89000005 90 76 50
-0.020395137 -0.040746022 0.89000005 81 67 41
-0.015533249 -0.040746022 0.89000005 83 68 45
0.025792802 -0.040746022 0.89000005 78 63 40
0.028223746 -0.040746022 0.89000005 85 70 47
0.030654689 -0.040746022 0.89000005 78 63 40
0.033085633 -0.040746022 0.89000005 77 62 41
0.035516579 -0.040746022 0.89000005 74 59 38
0.11573774 -0.040746022 0.89000005 48 40 19
0.11816868 -0.040746022 0.89000005 47 39 18
0.12059963 -0.040746022 0.89000005 46 35 15
-0.083599687 -0.03831508 0.89000005 81 69 45
-0.039842691 -0.03831508 0.89000005 99 85 59
-0.037411746 -0.03831508 0.89000005 96 82 56
-0.022826081 -0.03831508 0.89000005 84 70 44
-0.013102305 -0.03831508 0.89000005 89 75 49
0.0087761926 -0.03831508 0.89000005 81 66 43
0.020930912 -0.03831508 0.89000005 83 68 45
0.023361856 -0.03831508 0.89000005 81 66 43
0.030654689 -0.03831508 0.89000005 77 62 41
0.033085633 -0.03831508 0.89000005 76 61 40
0.037947521 -0.03831508 0.89000005 83 68 47
0.040378466 -0.03831508 0.89000005 84 69 46
0.042809408 -0.03831508 0.89000005 81 66 43
0.04524035 -0.03831508 0.89000005 82 67 44
