# .PCD v0.7 - Point Cloud Data file format
VERSION 0.7
FIELDS x y z rgb
SIZE 4 4 4 4
TYPE F F F F
COUNT 1 1 1 1
WIDTH 692
HEIGHT 1
VIEWPOINT 0 0 0 1 0 0 0
POINTS 692
DATA ascii
-0.032849491 -0.037882578 0.1 8.3299206e-40
-0.032705545 -0.036209788 0.10200001 1.5676802e-39
-0.031919986 -0.035745401 0.101 8.2976067e-40
-0.03528988 -0.037257705 0.104 9.2338983e-40
-0.034045245 -0.036620434 0.1033 1.0148666e-39
-0.035757139 -0.037402723 0.105 1.1067021e-39
-0.040262166 -0.038626153 0.11153335 7.393601e-40
-0.039469175 -0.039178673 0.11159375 9.230325e-40
-0.039445303 -0.039564017 0.11300001 1.0155855e-39
-0.042882204 -0.043818291 0.12400001 1.0155855e-39
0.020843068 -0.025157398 0.60700005 8.7596666e-39
0.023801507 -0.025157398 0.60700005 7.3749273e-39
0.026759947 -0.025157398 0.60700005 6.7284747e-39
0.015912334 -0.023185104 0.60700005 6.4518878e-39
0.018870773 -0.023678176 0.60700005 8.3887219e-39
0.02131816 -0.02365908 0.60650003 6.2671462e-39
0.023788707 -0.023665445 0.60666674 6.5433674e-39
0.026759947 -0.023678178 0.60700005 6.5433646e-39
0.028535012 -0.023579562 0.60700005 6.3578929e-39
0.011967746 -0.020226665 0.60700005 6.9106982e-39
0.014433112 -0.020719737 0.60700005 6.1731359e-39
0.015912334 -0.020719737 0.60700005 6.2656917e-39
0.018844597 -0.02069143 0.60616666 6.6337553e-39
0.021793252 -0.020685602 0.60600001 7.5549956e-39
0.023762299 -0.020685604 0.60600001 8.2925592e-39
0.026715863 -0.020685602 0.60600001 1.1149906e-38
0.028724624 -0.020714184 0.6068334 1.1521208e-38
0.031690683 -0.020719737 0.60700005 7.556799e-39
0.032676827 -0.020226665 0.60700005 9.8620499e-39
0.011474673 -0.019240517 0.60700005 6.5411968e-39
0.014433112 -0.019240517 0.60700005 6.4486438e-39
0.015886119 -0.019208819 0.60600001 6.9078241e-39
0.018839685 -0.019208819 0.60600001 7.8297804e-39
0.021793252 -0.019208819 0.60600001 1.1150624e-38
0.023762295 -0.019208819 0.60600001 1.0228667e-38
0.026715863 -0.019208819 0.60600001 1.179564e-38
0.028701225 -0.019219385 0.60633332 1.1705249e-38
0.031690683 -0.019240517 0.60700005 1.0415948e-38
0.032676827 -0.019240517 0.60700005 1.2352056e-38
-0.010713634 -0.01529593 0.60700005 7.096181e-39
-0.0082482668 -0.015789002 0.60700005 8.1114092e-39
-0.0062759724 -0.015789002 0.60700005 6.7288376e-39
-0.0033175319 -0.015789002 0.60700005 6.7263223e-39
-0.0018383117 -0.015789002 0.60700005 6.725958e-39
0.001120129 -0.015789002 0.60700005 6.1727814e-39
0.0030924228 -0.015789002 0.60700005 8.2007223e-39
0.0061917417 -0.016000319 0.60700005 8.6624207e-39
0.0095023783 -0.016282076 0.60700005 7.6479087e-39
0.011474673 -0.016282076 0.60700005 8.9382845e-39
0.01441699 -0.016264467 0.60633332 1.0321575e-38
0.015886119 -0.016255254 0.60600001 1.0320857e-38
0.018839687 -0.016255252 0.60600001 1.0874401e-38
0.021793252 -0.016255252 0.60600001 1.0322308e-38
0.023762297 -0.016255254 0.60600001 1.0691811e-38
0.026715865 -0.016255254 0.60600001 1.0692171e-38
0.028701225 -0.016264195 0.60633332 1.1337902e-38
0.031690683 -0.016282076 0.60700005 1.1798528e-38
0.033169903 -0.016282076 0.60700005 1.1062041e-38
-0.012685928 -0.014309783 0.60700005 6.9135876e-39
-0.011206707 -0.014309783 0.60700005 6.911787e-39
-0.0082482658 -0.014309783 0.60700005 9.6776559e-39
-0.0062759724 -0.014309783 0.60700005 9.7712906e-39
-0.0033175319 -0.014309783 0.60700005 9.2166805e-39
-0.0018383117 -0.014309783 0.60700005 8.0170639e-39
0.001120129 -0.014309783 0.60700005 8.9408153e-39
0.0030924228 -0.014309783 0.60700005 1.3735343e-38
0.0060508638 -0.014309783 0.60700005 1.2446407e-38
0.0095023774 -0.014309783 0.60700005 1.0692175e-38
0.011474673 -0.014309783 0.60700005 1.0782929e-38
0.014409335 -0.014286209 0.60600001 9.7687655e-39
0.015886119 -0.014286209 0.60600001 9.6765699e-39
0.018839685 -0.014286209 0.60600001 1.0322308e-38
0.021793252 -0.014286209 0.60600001 9.6769398e-39
0.023762295 -0.014286209 0.60600001 9.5836638e-39
0.026715863 -0.014286209 0.60600001 1.271976e-38
0.028701229 -0.014294066 0.60633332 1.2446053e-38
0.031690683 -0.014309783 0.60700005 1.0783657e-38
0.032676827 -0.014309783 0.60700005 1.050707e-38
-0.013672073 -0.011351342 0.60700005 8.2021671e-39
-0.011206708 -0.011351342 0.60700005 9.2109142e-39
-0.0082482668 -0.011351342 0.60700005 1.1057353e-38
-0.0062759724 -0.011351342 0.60700005 1.2445688e-38
-0.0033175321 -0.011351342 0.60700005 1.3276895e-38
-0.0018383117 -0.011351342 0.60700005 1.4752741e-38
0.0011201289 -0.011351342 0.60700005 1.2908832e-38
0.0030924228 -0.011351342 0.60700005 1.3092504e-38
0.0060508638 -0.011351343 0.60700005 1.1709211e-38
0.0095023783 -0.011351342 0.60700005 1.1430825e-38
0.011474673 -0.011351342 0.60700005 9.5851071e-39
0.014424916 -0.011344838 0.60666674 9.4003473e-39
0.015886119 -0.011332641 0.60600001 1.0323741e-38
0.018839685 -0.011332641 0.60600001 1.0785445e-38
0.021793252 -0.011332641 0.60600001 1.2168025e-38
0.023762297 -0.011332641 0.60600001 1.2168384e-38
0.026730558 -0.011338334 0.60633332 1.373607e-38
0.028716823 -0.011344749 0.60666668 1.0047529e-38
0.031690683 -0.011351342 0.60700005 1.1246072e-38
0.032676827 -0.012337489 0.60700005 1.1799604e-38
-0.013672074 -0.0083929021 0.60700005 6.8185137e-39
-0.011206707 -0.0083929021 0.60700005 7.9187362e-39
-0.0082482658 -0.0083929021 0.60700005 9.6729783e-39
-0.0062759724 -0.0083929021 0.60700005 1.2444609e-38
-0.0033175319 -0.0083929021 0.60700005 1.1063481e-38
-0.0018383117 -0.0083929021 0.60700005 1.1340791e-38
0.001120129 -0.0083929021 0.60700005 1.3094306e-38
0.0030924228 -0.0083929021 0.60700005 1.3278697e-38
0.0060508638 -0.0083929021 0.60700005 1.3647476e-38
0.0095023774 -0.0083929021 0.60700005 1.2170906e-38
0.011474673 -0.0083929021 0.60700005 1.189324e-38
0.014433112 -0.0083929021 0.60700005 1.0417749e-38
0.015912334 -0.0083929021 0.60700005 1.1062039e-38
0.018839685 -0.0083790747 0.60600001 1.0416668e-38
0.021793252 -0.0083790747 0.60600001 9.8634961e-39
0.023775907 -0.0083836839 0.60633332 1.0877289e-38
0.026759947 -0.0083929021 0.60700005 1.0325553e-38
0.02873224 -0.0083929021 0.60700005 9.8627786e-39
-0.013672074 -0.0074067549 0.60700005 7.1872991e-39
-0.011206707 -0.0069136815 0.60700005 7.6446703e-39
-0.0082482658 -0.0064206081 0.60700005 1.0321226e-38
-0.0062759724 -0.0064206081 0.60700005 1.1154228e-38
-0.0033175321 -0.0064206081 0.60700005 1.041631e-38
-0.0018383117 -0.0064206081 0.60700005 1.235386e-38
0.0011201289 -0.0064206081 0.60700005 1.3461645e-38
0.0030924228 -0.0064206081 0.60700005 1.3646757e-38
0.0060508642 -0.0064206081 0.60700005 1.4016618e-38
0.0095023783 -0.0064206081 0.60700005 1.2909552e-38
0.011474672 -0.0064206086 0.60700005 1.2448215e-38
0.014433113 -0.0064206081 0.60700005 1.1985437e-38
0.015912334 -0.0064206081 0.60700005 1.170849e-38
0.018870773 -0.0064206086 0.60700005 1.0232997e-38
0.020843068 -0.0064206081 0.60700005 9.6791048e-39
0.023801507 -0.0064206081 0.60700005 9.95497e-39
0.026759947 -0.0069136815 0.60700005 1.0876929e-38
0.028239168 -0.0074067549 0.60700005 9.8627772e-39
-0.0062759724 -0.0034621677 0.60700005 1.0692892e-38
-0.0033175319 -0.0034621677 0.60700005 1.1151715e-38
-0.0018383117 -0.0034621677 0.60700005 1.235098e-38
0.001120129 -0.0034621677 0.60700005 1.1524098e-38
0.0030924228 -0.0034621677 0.60700005 1.3737154e-38
0.0060508638 -0.0034621677 0.60700005 1.3922982e-38
0.0095023774 -0.0034621677 0.60700005 1.2633682e-38
0.011474673 -0.0034621677 0.60700005 1.3462727e-38
0.014433112 -0.0034621677 0.60700005 1.3000668e-38
0.015912334 -0.0034621677 0.60700005 1.235386e-38
0.018870775 -0.0034621677 0.60700005 9.4010816e-39
0.020843068 -0.0034621677 0.60700005 9.6783859e-39
0.022815362 -0.0034621677 0.60700005 9.5869064e-39
-0.0028244585 -0.0024760207 0.60700005 1.1337907e-38
-0.0018383117 -0.0024760207 0.60700005 1.2259864e-38
0.0013666658 -0.002229484 0.60700005 1.2630444e-38
0.0030924228 -0.0019829473 0.60700005 1.3091422e-38
0.0058043269 -0.002229484 0.60700005 1.2539329e-38
0.0090093045 -0.0024760207 0.60700005 1.4200288e-38
0.014433112 -0.0024760207 0.60700005 1.2909552e-38
0.015912334 -0.0019829473 0.60700005 1.2999228e-38
0.018673545 -0.0020815621 0.60700005 1.1338626e-38
0.01893295 -0.028208479 0.60900003 1.1250388e-38
0.020911742 -0.028208479 0.60900003 1.0328071e-38
0.023873126 -0.028695457 0.60883331 9.2199245e-39
0.026848121 -0.028703177 0.60900003 9.0348144e-39
0.028826913 -0.028703175 0.60900003 9.2188385e-39
0.031795103 -0.028208479 0.60900003 7.4649607e-39
0.032784499 -0.028208479 0.60900003 8.0181345e-39
0.0090389885 -0.025240289 0.60900003 6.2653287e-39
0.01126513 -0.025734987 0.60900003 6.9114226e-39
0.01447452 -0.026219327 0.60875005 7.0036253e-39
0.015951656 -0.026208963 0.6085 7.9284654e-39
0.018906774 -0.026194066 0.60816669 1.0327711e-38
0.020877406 -0.027174387 0.60800004 1.078797e-38
0.02384072 -0.027174389 0.60800004 8.7585848e-39
0.026804034 -0.027174387 0.60800004 7.7429938e-39
0.028779576 -0.026186615 0.60800004 7.2812912e-39
0.031769 -0.026208963 0.6085 8.1106861e-39
0.033279195 -0.026229687 0.60900003 8.1110462e-39
-0.0058019538 -0.023261497 0.60900003 4.5147034e-39
-0.0033284631 -0.023261497 0.60900003 6.8195913e-39
-0.0013496707 -0.023261497 0.60900003 6.5426415e-39
0.0016185178 -0.023756195 0.60900003 6.8170676e-39
0.003102612 -0.023756195 0.60900003 6.7248706e-39
0.0060708001 -0.023756193 0.60900003 6.4490025e-39
0.0090389885 -0.023756195 0.60900003 6.172773e-39
0.01100545 -0.023730462 0.60833335 6.4493613e-39
0.014456891 -0.023717187 0.60800004 6.6341197e-39
0.015938548 -0.024211071 0.60800004 6.821392e-39
0.029767349 -0.024211071 0.60800004 6.8188725e-39
0.031742893 -0.023717187 0.60800004 7.2798464e-39
0.033238418 -0.023727143 0.60825002 7.1876508e-39
0.036412288 -0.023591295 0.60900003 7.554997e-39
-0.010748934 -0.020293308 0.60900003 6.9135876e-39
-0.0084403427 -0.020623108 0.60900003 4.7923693e-39
-0.00629427 -0.020779675 0.60874999 5.0682373e-39
-0.0033257303 -0.020771345 0.6085 7.9255774e-39
-0.0013489135 -0.020779675 0.60874999 6.2653316e-39
0.0016171889 -0.020771345 0.6085 6.2635309e-39
0.0031000646 -0.020771345 0.6085 6.2635309e-39
0.0060622226 -0.020759696 0.60816669 6.1716954e-39
0.0090241469 -0.020753872 0.60800004 5.9873041e-39
0.010802136 -0.02085265 0.60800004 6.1720541e-39
0.033389181 -0.020918502 0.60800004 1.1429734e-38
0.036218032 -0.020770939 0.6085 1.0322305e-38
0.03806128 -0.020623108 0.60900003 9.03012e-39
-0.010748934 -0.019303912 0.60900003 5.2540663e-39
-0.0087637538 -0.019288063 0.6085 5.1600714e-39
-0.0062863119 -0.019272216 0.60800004 6.4508088e-39
-0.0033229976 -0.019272216 0.60800004 6.2657015e-39
-0.0018413402 -0.019272216 0.60800004 6.2653316e-39
0.0011219744 -0.019272216 0.60800004 5.9876629e-39
0.0030975174 -0.019272216 0.60800004 5.8954672e-39
0.0060608317 -0.019272216 0.60800004 6.0791396e-39
0.0090241469 -0.019272216 0.60800004 6.0791396e-39
0.010011918 -0.019272216 0.60800004 6.0798585e-39
0.033718437 -0.019272216 0.60800004 1.2907028e-38
0.036187865 -0.019272216 0.60800004 9.9542456e-39
0.03773148 -0.019303912 0.60900003 1.1336461e-38
-0.013205938 -0.01606907 0.60825002 9.3110341e-39
-0.011323947 -0.016506454 0.60800004 6.1753065e-39
-0.0087637538 -0.017310895 0.6085 6.0831039e-39
-0.0062863119 -0.017296672 0.60800004 7.0976146e-39
-0.0033229976 -0.017296672 0.60800004 5.896919e-39
-0.0018413402 -0.017296672 0.60800004 5.8965518e-39
0.0011219744 -0.017296672 0.60800004 5.8032716e-39
0.0030975174 -0.017296672 0.60800004 5.7103571e-39
0.0055669462 -0.017296672 0.60800004 5.986944e-39
0.036187861 -0.0163089 0.60800004 1.4199209e-38
-0.01468237 -0.014333357 0.60800004 1.0878e-38
0.033718437 -0.014333357 0.60800004 1.2907031e-38
0.036742084 -0.014356932 0.60900003 1.4475796e-38
0.033238415 -0.011374718 0.60825002 1.1338626e-38
0.031742893 -0.0084067285 0.60800004 1.0324474e-38
0.026804034 -0.0054434142 0.60800004 1.0415948e-38
0.028795624 -0.0062698126 0.60833335 1.1153513e-38
0.024334606 -0.0034678713 0.60800004 9.4950653e-39
0.026804034 -0.0034678713 0.60800004 9.1255639e-39
0.027837517 -0.003473575 0.60900003 9.5861903e-39
-0.0057924264 -0.0024800999 0.60800004 1.0232276e-38
-0.0034876261 -0.0018215856 0.60800004 1.1523738e-38
-0.0018413402 -0.0014923284 0.60800004 1.2261661e-38
0.00062808866 -0.0014923284 0.60800004 1.3275813e-38
0.0065547181 -0.0014923284 0.60800004 1.3276176e-38
0.0090241469 -0.0014923284 0.60800004 1.4567991e-38
0.01099969 -0.0019862142 0.60800004 1.3277253e-38
0.014456891 -0.0014923284 0.60800004 1.3092864e-38
0.019889634 -0.0014923284 0.60800004 1.0969841e-38
0.020877406 -0.0019862142 0.60800004 1.0416667e-38
0.02384072 -0.0019862142 0.60800004 9.4954254e-39
0.026826076 -0.0019874414 0.6085 9.9553246e-39
0.027837517 -0.0024841789 0.60900003 9.3096006e-39
0.0013689173 0.00073015748 0.60800004 1.3275815e-38
0.0030975174 0.00097710034 0.60800004 1.355276e-38
0.0061843032 0.0013475147 0.60800004 1.3368369e-38
0.0090241469 0.0014709862 0.60800004 1.3829349e-38
0.01099969 0.0014709862 0.60800004 1.3737513e-38
0.014456891 0.0014709862 0.60800004 1.2814118e-38
0.015938548 0.0014709862 0.60800004 1.3183618e-38
0.018901862 0.0014709862 0.60800004 1.060106e-38
0.02088885 0.001472334 0.60833335 1.0047522e-38
0.023858327 0.0014726029 0.60844451 9.4936317e-39
0.026848121 0.00048400939 0.60900003 9.8627772e-39
0.0070486036 0.0034465292 0.60800004 1.3277255e-38
0.0090241469 0.0034465292 0.60800004 1.1986516e-38
0.01099969 0.0034465294 0.60800004 1.2815201e-38
0.014456891 0.0034465292 0.60800004 1.3091422e-38
0.015938548 0.0034465292 0.60800004 1.1985075e-38
0.018912766 0.0034484186 0.60833335 1.1062394e-38
0.020911742 0.0034521979 0.60900003 9.0333655e-39
0.023879932 0.0034521979 0.60900003 9.8609695e-39
0.011260201 0.0056761093 0.60874999 1.300031e-38
0.014472743 0.0064174137 0.60866666 1.2169466e-38
0.015956024 0.0064174137 0.60866666 1.0600701e-38
0.018929677 0.0064193946 0.60888892 1.0969121e-38
0.020911742 0.005925688 0.60900003 8.9390146e-39
0.023220336 0.0057607889 0.60900003 9.5840211e-39
0.015964761 0.0093885744 0.60900003 1.1522296e-38
0.01893295 0.0093885744 0.60900003 9.5843896e-39
0.029217483 -0.038538702 0.61200005 6.4511704e-39
0.031951725 -0.038787268 0.61200005 5.8987168e-39
0.033940267 -0.038787272 0.61200005 8.5723901e-39
0.036923077 -0.038290136 0.61200005 9.4021508e-39
0.023997566 -0.036301594 0.61200005 8.2979682e-39
0.025986105 -0.03679873 0.61200005 7.8348251e-39
0.028952867 -0.036778957 0.61166674 8.2965207e-39
0.031925622 -0.03676907 0.61150002 7.0057805e-39
0.03392205 -0.036778957 0.61166668 8.4794784e-39
0.036923077 -0.03679873 0.61200005 1.0324113e-38
0.03824877 -0.036633018 0.61200005 1.0140799e-38
0.01654054 -0.033318784 0.61200005 1.0047885e-38
0.019026216 -0.033318784 0.61200005 9.8649352e-39
0.020517621 -0.03381592 0.61200005 9.866017e-39
0.023971153 -0.033779357 0.61133337 9.3124761e-39
0.025943644 -0.033760667 0.611 1.1614851e-38
0.028921582 -0.033760667 0.611 7.3734924e-39
0.031899519 -0.033760667 0.611 7.4660397e-39
0.033884812 -0.033760663 0.611 8.9411754e-39
0.036892913 -0.0337887 0.61150002 1.0233715e-38
0.038414482 -0.03381592 0.61200005 9.1255723e-39
-0.0033448595 -0.030335976 0.61200005 4.7912903e-39
-0.0013563193 -0.030335976 0.61200005 4.5147034e-39
0.0016264908 -0.030335976 0.61200005 5.9891062e-39
0.0031178959 -0.030335976 0.61200005 6.3575272e-39
0.0061007058 -0.031131392 0.61200005 6.3582474e-39
0.0080892462 -0.031330246 0.61200005 6.6337497e-39
0.011072055 -0.031330246 0.61200005 7.1872878e-39
0.014043383 -0.031305462 0.61150002 7.9259431e-39
0.016030299 -0.031305462 0.61150002 9.8634933e-39
0.019491449 -0.031279054 0.611 1.0695418e-38
0.020963248 -0.031254269 0.61049998 1.1063841e-38
0.023931941 -0.031245464 0.61033338 9.9585658e-39
0.025901185 -0.031227861 0.61000001 8.9426174e-39
0.028874248 -0.031227862 0.61000007 8.2039677e-39
0.031847309 -0.031227861 0.61000001 7.8348237e-39
0.033857621 -0.031253725 0.61050004 9.5872637e-39
0.036862746 -0.031279054 0.611 1.0141158e-38
0.038398992 -0.031317852 0.61175007 8.9397391e-39
0.040900156 -0.031330246 0.61200005 7.3684505e-39
-0.0033393938 -0.02879744 0.611 4.423584e-39
-0.0013552113 -0.028821412 0.61150002 4.7912875e-39
0.0016242944 -0.028809424 0.61125004 6.5426401e-39
0.0031128014 -0.02879744 0.611 6.2660518e-39
0.0060907379 -0.02879744 0.611 6.0816606e-39
0.0080760289 -0.02879744 0.611 6.0802186e-39
0.011047662 -0.028781997 0.61066669 7.7397442e-39
0.01434693 -0.028601119 0.61033332 8.1103316e-39
0.015997123 -0.02901005 0.61025 8.4819993e-39
0.019459549 -0.029245818 0.61000001 1.1065636e-38
0.02094608 -0.029245818 0.61000001 1.1065636e-38
0.031847309 -0.029245818 0.61000001 7.2816513e-39
0.034027554 -0.028849408 0.61000001 9.1255681e-39
0.036832578 -0.02877428 0.61049998 9.9556903e-39
0.038367607 -0.028809426 0.61124998 9.7712934e-39
0.040900156 -0.028844569 0.61200005 7.3698826e-39
-0.0033339285 -0.026272755 0.61000001 4.6076151e-39
-0.0013518869 -0.026272755 0.61000001 6.2667749e-39
0.0016211756 -0.026272755 0.61000001 7.3716791e-39
0.0031077068 -0.026272755 0.61000001 6.7259496e-39
0.006080769 -0.026272753 0.61000007 6.1734961e-39
0.0080628106 -0.027263775 0.61000001 5.7128752e-39
0.010540362 -0.027263775 0.61000001 7.1872907e-39
0.03482037 -0.026272755 0.61000001 8.9411684e-39
0.036802415 -0.026272755 0.61000001 8.5731104e-39
0.038336225 -0.026305465 0.61075002 8.1103302e-39
0.04086674 -0.026338173 0.61150002 6.8152655e-39
-0.0077935224 -0.023299692 0.61000001 4.8852838e-39
-0.006306991 -0.023795202 0.61000001 4.4239455e-39
-0.0033339285 -0.024290714 0.61000001 6.1742219e-39
-0.0013518869 -0.024290714 0.61000001 6.635556e-39
0.03482037 -0.024290714 0.61000001 6.7270328e-39
0.038304843 -0.023805158 0.61025 7.2787688e-39
0.04136388 -0.023853716 0.61150002 6.2620889e-39
-0.0097755641 -0.021317651 0.61000001 5.0689562e-39
0.038784456 -0.021317651 0.61000001 7.8308566e-39
0.04131335 -0.020847946 0.61075002 6.9982135e-39
0.038911618 -0.019399006 0.61200005 1.0322309e-38
0.041363064 -0.019383157 0.61150002 6.6297967e-39
0.03785539 -0.017382016 0.611 1.4568343e-38
0.03482037 -0.014380506 0.61000001 1.4935335e-38
0.034381941 -0.011427769 0.61100006 1.1892159e-38
0.036923077 -0.012439116 0.61200005 9.7695026e-39
0.03283833 -0.0084343823 0.61000001 1.0140083e-38
0.029914228 -0.0054702731 0.611 1.0969122e-38
0.03191692 -0.006465361 0.61133337 1.1430822e-38
0.032945998 -0.0074677658 0.61200005 9.7713004e-39
0.028874246 -0.0034792786 0.61000001 1.0047168e-38
0.02859124 -0.0018305735 0.61100006 1.1615207e-38
0.025901185 0.0019713352 0.61000001 9.7705788e-39
0.028166076 0.001229478 0.61075002 9.3099608e-39
0.025901185 0.0034578666 0.61000001 1.0138282e-38
0.027928937 0.0034635349 0.611 1.170776e-38
0.02094608 0.0074219494 0.61000001 9.2141624e-39
0.024256289 0.0067632962 0.61016673 9.5840211e-39
0.025943644 0.0064425543 0.611 1.0691812e-38
0.027951792 0.0059504192 0.61150002 9.6787447e-39
0.016981997 0.0094039906 0.61000001 9.0330137e-39
0.01995506 0.0094039906 0.61000001 9.860608e-39
0.02094608 0.0094039906 0.61000001 9.4918255e-39
0.023959437 0.0094194077 0.611 9.7673334e-39
0.019475093 0.010403533 0.61049998 1.0044285e-38
0.02094608 0.010395012 0.61000001 1.0412703e-38
0.022965709 0.010412052 0.611 9.4900276e-39
0.029063586 -0.0453979 0.61400002 8.8504231e-39
0.030061105 -0.0453979 0.61400002 9.4043088e-39
0.033053663 -0.0453979 0.61400002 1.0971634e-38
0.028564826 -0.043402862 0.61400002 6.7281258e-39
0.030559864 -0.043402862 0.61400002 6.6370007e-39
0.033525508 -0.04336752 0.6135 9.31176e-39
0.035048701 -0.043402862 0.61400002 1.0325913e-38
0.024075991 -0.041407824 0.61400002 7.0969055e-39
0.025738522 -0.041740328 0.61400002 8.6638683e-39
0.028529733 -0.041855596 0.61325002 6.7270412e-39
0.031008042 -0.041838333 0.61300004 6.1753051e-39
0.033995725 -0.041838333 0.61299998 7.3742127e-39
0.037013575 -0.041872863 0.6135 9.7716606e-39
0.038540021 -0.041407824 0.61400002 9.8645723e-39
0.019088395 -0.038415264 0.61400002 7.2784045e-39
0.021332812 -0.038664646 0.61400002 1.0785448e-38
0.024056384 -0.038882744 0.6135 8.3880031e-39
0.025540829 -0.038866695 0.61325002 6.9128702e-39
0.028518304 -0.039348595 0.61300004 6.9117898e-39
0.036983408 -0.039348595 0.61300004 8.7567814e-39
0.038477249 -0.03885065 0.61300004 8.2028929e-39
0.041011538 -0.038726915 0.61366671 7.5575263e-39
-0.00086199207 -0.036420226 0.61400002 4.607978e-39
0.0016318061 -0.036420226 0.61400002 5.251188e-39
0.0036268448 -0.036420226 0.61400002 7.0032623e-39
0.0066194031 -0.036420226 0.61400002 6.6348371e-39
0.0081156818 -0.036420226 0.61400002 6.0798613e-39
0.011108239 -0.036420226 0.61400002 6.173489e-39
0.013103278 -0.036918987 0.61400002 5.8961833e-39
0.016091196 -0.0369091 0.61383337 6.7266712e-39
0.019072849 -0.03688933 0.6135 7.5560788e-39
0.020559328 -0.036874093 0.61325002 1.0693967e-38
0.023538832 -0.037356809 0.61300004 8.574195e-39
0.025032673 -0.037356809 0.61300004 8.2050537e-39
0.038975198 -0.037356809 0.61300004 9.2181239e-39
0.041464936 -0.03685886 0.61300004 7.2791402e-39
0.043361362 -0.036752734 0.61400002 7.1862243e-39
-0.0028570306 -0.033926427 0.61400002 4.8842104e-39
-0.0013596436 -0.03389921 0.6135 4.5154223e-39
0.0016304773 -0.03389921 0.6135 5.2511866e-39
0.0036238912 -0.03389921 0.6135 6.2653386e-39
0.0066140122 -0.03389921 0.6135 6.4504459e-39
0.0081090722 -0.03389921 0.6135 6.542273e-39
0.011090148 -0.033871178 0.61299998 6.6344672e-39
0.013081937 -0.033871174 0.61300004 6.7266642e-39
0.015820649 -0.03412015 0.61300004 7.2805709e-39
0.019057306 -0.034369122 0.61300004 1.0510307e-38
0.041464936 -0.033871174 0.61300004 7.8305063e-39
0.043492578 -0.033898801 0.61350006 6.9996652e-39
-0.0038482721 -0.032377332 0.61300004 4.8842062e-39
-0.0013585355 -0.032377332 0.61300004 4.5147034e-39
0.0016291485 -0.032377332 0.61300004 5.251544e-39
0.0031229905 -0.032377332 0.61300004 6.2653344e-39
0.0061106742 -0.032377332 0.61300004 6.5426415e-39
0.041962884 -0.031381439 0.61300004 7.2758891e-39
0.043338001 -0.031747531 0.61366671 6.630161e-39
0.041962884 -0.028891703 0.61300004 7.2748073e-39
0.043028854 -0.028938834 0.61400002 6.9060248e-39
0.041962884 -0.026401967 0.61300004 6.8134649e-39
0.043028854 -0.026445035 0.61400002 6.7212706e-39
0.043028854 -0.023951236 0.61400002 6.2613687e-39
0.043028854 -0.021457439 0.61400002 6.8134607e-39
0.035048701 -0.010484728 0.61400002 1.1707406e-38
0.030012148 -0.0034963898 0.61300004 1.0416673e-38
0.029016253 0.0019810302 0.61300004 1.0693251e-38
0.029016253 0.0034748723 0.61300004 1.170776e-38
0.028564826 0.0064730984 0.61400002 1.0139003e-38
0.026028568 0.0094502391 0.61300004 9.5847442e-39
0.026071029 0.010463175 0.61400002 9.4925485e-39
0.017176872 -0.045619715 0.61700004 6.6323134e-39
0.018179266 -0.045619715 0.61700004 6.6323134e-39
0.021174729 -0.046096265 0.61666673 7.0936559e-39
0.024154413 -0.04604616 0.61600006 7.5567962e-39
0.025644951 -0.046027675 0.61575007 7.8341076e-39
0.028475842 -0.04618831 0.61566669 9.4035969e-39
0.03110921 -0.04547184 0.61500001 1.0049678e-38
0.034106642 -0.04547184 0.61500001 1.1248221e-38
-0.0013674003 -0.042612538 0.61700004 5.2580306e-39
0.0001361894 -0.042612538 0.61700004 5.1615189e-39
0.004145762 -0.042612538 0.61700004 5.5288525e-39
0.0066517452 -0.042612538 0.61700004 5.8057925e-39
0.0086565316 -0.042612538 0.61700004 5.6199621e-39
0.011830777 -0.042946666 0.61700004 5.6199593e-39
0.0131673 -0.043113731 0.61700004 5.5277637e-39
0.016161373 -0.043079197 0.61650008 5.988023e-39
0.01915057 -0.043043856 0.61600006 6.3564454e-39
0.020901917 -0.04329405 0.61600006 7.0021819e-39
0.024115203 -0.043473553 0.61500001 8.1103302e-39
0.025613919 -0.043473553 0.61500001 9.032648e-39
0.037104074 -0.043473553 0.61500001 1.1155671e-38
0.038728327 -0.043113731 0.61700004 1.1524094e-38
-0.0013651841 -0.041542701 0.61600006 6.0859906e-39
0.0011385826 -0.041610144 0.61700004 5.2526286e-39
0.0036445656 -0.041610144 0.61700004 5.8983511e-39
0.0066517452 -0.041610144 0.61700004 6.1745751e-39
0.0086565316 -0.041610144 0.61700004 5.7121578e-39
0.011644807 -0.041542701 0.61600006 5.712155e-39
0.01314596 -0.041542701 0.61600006 5.6199593e-39
0.016148264 -0.041542701 0.61600006 5.8958274e-39
0.019119482 -0.041475262 0.61500001 6.0798585e-39
0.021317597 -0.041874923 0.61500001 1.0045358e-38
0.024115203 -0.042474408 0.61500001 7.650431e-39
0.025114346 -0.042474408 0.61500001 8.7567786e-39
0.038103215 -0.042474408 0.61500001 1.0786529e-38
0.04016671 -0.041542701 0.61600006 1.0971274e-38
-0.0013651842 -0.039040782 0.61600006 5.069675e-39
0.0013864681 -0.039025143 0.61575007 5.1597113e-39
0.0036386584 -0.039040782 0.61600006 6.9114268e-39
0.0066355737 -0.0390095 0.61550003 6.3582474e-39
0.0081355087 -0.0390095 0.61550003 5.9887447e-39
0.011135377 -0.0390095 0.61550003 5.8036303e-39
0.01313529 -0.0390095 0.61550003 5.8961847e-39
0.016122051 -0.038977407 0.61500001 6.0802172e-39
0.019119482 -0.039476976 0.61500001 6.5401178e-39
0.020618198 -0.039476976 0.61500001 1.0784003e-38
0.042099793 -0.039476976 0.61500001 1.0325553e-38
0.043479245 -0.038853135 0.61566669 1.0140442e-38
0.046246275 -0.037600569 0.61700004 1.1153868e-38
-0.001529492 -0.037145641 0.61500001 4.7008925e-39
0.0016344639 -0.037478689 0.61500001 5.2515468e-39
0.0036327518 -0.037478689 0.61500001 7.187655e-39
0.0066301832 -0.037478689 0.61500001 6.4504459e-39
0.0081288991 -0.037478689 0.61500001 6.2642526e-39
0.011126332 -0.037478689 0.61500001 6.0802144e-39
0.044098079 -0.037478689 0.61500001 8.2014552e-39
0.046672519 -0.036538862 0.61600006 9.7669816e-39
0.046572279 -0.03373671 0.61600006 6.7223566e-39
0.044098079 -0.030484682 0.61500001 6.3532084e-39
0.046171319 -0.030534249 0.61600006 6.445404e-39
0.044121981 -0.028501293 0.61533338 6.4450453e-39
0.046246275 -0.029581426 0.61700004 7.0914937e-39
0.044241488 -0.025571853 0.61700004 6.9978547e-39
0.044241488 -0.024068264 0.61700004 6.8131033e-39
0.043705251 -0.021044422 0.61650002 6.997133e-39
0.038103215 -0.015497522 0.61500001 1.4753462e-38
0.037164401 -0.011519649 0.61600006 9.4914765e-39
0.034162097 -0.007516575 0.61600006 9.6783831e-39
0.033107497 -0.006505229 0.61500001 1.0140083e-38
0.030660221 -0.0030139291 0.61600006 1.170741e-38
0.030159023 -0.0015119642 0.61600006 1.0508863e-38
0.030207984 0.0014927606 0.61700004 1.0877647e-38
0.030207984 0.0034975468 0.61700004 1.1339702e-38
0.029110922 0.006483641 0.61500001 1.0600342e-38
0.02920559 0.0075071193 0.61700004 1.124463e-38
0.013209983 -0.047778875 0.61900002 6.3564482e-39
0.016226908 -0.048181135 0.61900002 6.7245132e-39
0.018223461 -0.048243102 0.61849999 6.909266e-39
0.021237949 -0.048243105 0.61849999 7.4638817e-39
0.024232836 -0.047701687 0.61800003 8.5720356e-39
0.025738863 -0.047701687 0.61800003 9.8634933e-39
0.0021479158 -0.04576759 0.61900002 5.8068855e-39
0.0036563794 -0.04576759 0.61900002 5.3459032e-39
0.0066733067 -0.046270411 0.61900002 6.2667735e-39
0.0086808801 -0.046251923 0.61874998 6.0809431e-39
0.011692067 -0.046233442 0.61849999 5.9883817e-39
0.013199312 -0.046233442 0.61849999 5.8961847e-39
0.015999889 -0.046296064 0.61800003 6.4482809e-39
0.018208729 -0.046697669 0.61800003 6.724509e-39
-0.00086760765 -0.043685615 0.61800003 6.4565766e-39
0.0014751004 -0.043350946 0.61800003 5.897998e-39
0.0034831362 -0.043350946 0.61800003 5.6210495e-39
0.0066625252 -0.043685615 0.61800003 5.5292084e-39
0.008670561 -0.043685615 0.61800003 5.7121578e-39
0.011180606 -0.043685615 0.61800003 5.5277637e-39
0.042305157 -0.041677579 0.61800003 1.2077267e-38
0.044384897 -0.039733738 0.61900002 1.115675e-38
0.046396181 -0.038225275 0.61900002 1.1246785e-38
0.047325246 -0.032641422 0.61800003 6.8141893e-39
0.048407465 -0.034202702 0.61900002 7.0007442e-39
0.047401823 -0.030682957 0.61900002 6.5375996e-39
0.04531721 -0.02862535 0.61800003 9.0268816e-39
0.03332283 -0.0055418969 0.61900002 1.2813753e-38
0.031311546 -0.0025249701 0.61900002 1.1430822e-38
0.033268999 -0.0035249083 0.61800003 1.3552758e-38
0.030281425 0.0060185306 0.61849999 1.106276e-38
0.027244892 0.0095273219 0.61800003 9.9535267e-39
0.029300259 0.0095427381 0.61900002 1.0598896e-38
0.004179358 -0.053063016 0.62200004 7.3756504e-39
0.0038385813 -0.051324118 0.62133336 6.1771058e-39
0.0061954064 -0.051506214 0.62150002 6.267142e-39
0.0087196659 -0.051506214 0.62150002 7.2780514e-39
0.011748778 -0.051506214 0.62150002 8.0170555e-39
0.013762444 -0.051485293 0.62125003 7.463523e-39
0.016777232 -0.051444262 0.62075007 8.2032447e-39
0.018297123 -0.051465183 0.62100005 9.7720137e-39
0.021301448 -0.050905216 0.62033337 1.06025e-38
0.001482261 -0.048269551 0.62100005 7.0994222e-39
0.0036652396 -0.048399102 0.62050003 5.5306574e-39
0.006185438 -0.048399106 0.62050003 6.0820291e-39
0.0087056365 -0.048399102 0.62050003 7.0025393e-39
0.011720423 -0.048359696 0.62 6.7252321e-39
0.013231323 -0.048863329 0.62 7.0011015e-39
0.016253125 -0.048863329 0.62 6.8167103e-39
0.024311261 -0.048863329 0.62 9.9567679e-39
-0.00087041542 -0.045841526 0.62 7.7455147e-39
0.00080836291 -0.046513036 0.62 6.730281e-39
0.0036622861 -0.046848793 0.62 5.254788e-39
0.04848567 -0.036776125 0.62 1.161521e-38
0.049289685 -0.033845603 0.62166667 7.3691652e-39
0.048642077 -0.030831659 0.62200004 6.4461243e-39
0.046471134 -0.028717989 0.62 6.7216322e-39
0.047631558 -0.028810628 0.62200004 6.3539286e-39
0.045537196 -0.025737636 0.62100005 7.0900503e-39
0.045610525 -0.024768565 0.62200004 7.1815271e-39
0.04460001 -0.0207265 0.62200004 6.8127418e-39
0.03645717 -0.010604261 0.62100005 8.4773218e-39
0.035505362 -0.0075897886 0.62200004 9.7705788e-39
0.03438393 -0.006558117 0.62 1.0508863e-38
0.031412713 -0.0015242366 0.62100005 1.1430819e-38
0.031463299 0.00099959935 0.62200004 1.0877648e-38
0.031463299 0.0030206316 0.62200004 1.1523375e-38
0.030452782 0.0075679547 0.62200004 1.2627564e-38
0.0041860775 -0.055172611 0.62300003 6.8253591e-39
0.0062203277 -0.055261172 0.62400001 6.0874311e-39
0.0087547414 -0.055261172 0.62400001 7.0951076e-39
0.01027539 -0.055261172 0.62400001 9.1255639e-39
0.0062103593 -0.053148329 0.62300003 6.4526109e-39
0.008740712 -0.053148329 0.62300003 7.2780514e-39
0.011777135 -0.053148329 0.62300003 7.6486345e-39
0.0138129 -0.053190984 0.62349999 8.2025314e-39
0.016357983 -0.053233638 0.62400001 1.0418101e-38
0.01939928 -0.052219875 0.62400001 1.0325905e-38
0.048253305 -0.03850276 0.62349999 1.2076904e-38
0.049812246 -0.037013393 0.62400001 1.161521e-38
0.049812246 -0.032958332 0.62400001 7.2758877e-39
0.048798479 -0.029917035 0.62400001 6.7227112e-39
0.045683853 -0.023796244 0.62300003 7.0900475e-39
0.034550302 -0.0055777091 0.62300003 1.1432258e-38
0.03252602 -0.0025412866 0.62300003 1.2907388e-38
0.031513881 0.0055558402 0.62300003 1.2814838e-38
0.0087828012 -0.056455303 0.62600005 1.0416667e-38
0.01131548 -0.055902518 0.62550002 1.0878724e-38
0.013359368 -0.055438288 0.62600005 1.097092e-38
0.017399587 -0.053318951 0.625 1.0971274e-38
0.044958532 -0.042284537 0.62700003 1.2815193e-38
0.050988916 -0.035097998 0.62600005 8.7553478e-39
0.051029641 -0.033598885 0.62650001 7.2784143e-39
0.049892075 -0.030980367 0.625 6.9071024e-39
0.05005173 -0.030060865 0.62700003 7.4602762e-39
0.046845905 -0.027934197 0.625 7.3666372e-39
0.048954885 -0.028995907 0.62600005 7.0907734e-39
0.046920855 -0.025944863 0.62600005 7.2737199e-39
0.045903839 -0.021876803 0.62600005 6.6283505e-39
0.039865334 -0.014781275 0.62700003 1.4567991e-38
0.036750708 -0.0086539872 0.62600005 9.5843896e-39
0.035733692 -0.0061122631 0.62600005 1.1615929e-38
0.034716681 -0.0030612187 0.62600005 1.3185773e-38
0.032656543 -0.0010267745 0.62550002 1.2261661e-38
0.03273486 0.0015169544 0.62700003 1.1524096e-38
0.03273486 0.0030449133 0.62700003 1.0878726e-38
0.031615052 0.0065890662 0.625 1.3182539e-38
0.031157941 0.0086320136 0.62600005 1.013612e-38
0.012401502 -0.05672586 0.62900001 1.244641e-38
0.014422313 -0.05561541 0.62800002 1.1340062e-38
0.05115182 -0.037250657 0.62800002 1.2538246e-38
0.051233273 -0.03117864 0.62900001 7.2773325e-39
0.049189493 -0.028112976 0.62900001 7.3662813e-39
0.04707076 -0.025007488 0.62800002 7.3659156e-39
0.036926828 -0.0066533154 0.62900001 1.0599615e-38
0.035847858 -0.003581946 0.62800002 1.3186133e-38
0.03380733 -0.001541418 0.62800002 1.3460205e-38
0.032787066 0.0056004296 0.62800002 1.4010853e-38
0.0062801386 -0.056816038 0.63000005 6.1799869e-39
0.013466072 -0.056906223 0.63100004 1.2630801e-38
0.052338235 -0.035322264 0.63000005 1.0875847e-38
0.052379772 -0.033813402 0.63050008 7.9234236e-39
0.051396176 -0.030252639 0.63100004 7.8297832e-39
0.050291207 -0.029181184 0.63000005 8.1049253e-39
0.04839734 -0.026193535 0.63200003 7.2737199e-39
0.04722067 -0.024063617 0.63000005 7.3659156e-39
0.046197154 -0.020993078 0.63000005 6.4439593e-39
0.039156478 -0.011818861 0.63200003 9.124136e-39
0.038069382 -0.0087247472 0.63100004 1.0137563e-38
0.036985535 -0.0056403801 0.63000005 1.216802e-38
0.038129717 -0.0066850483 0.63200003 1.0507419e-38
0.036703076 -0.002915632 0.63100004 1.1708122e-38
0.033914994 -0.00052281382 0.63000005 1.2630444e-38
0.036019105 -0.0015487815 0.63100004 1.4290323e-38
0.033968832 0.001526632 0.63100004 1.1616292e-38
0.033995748 0.0030671731 0.63150001 1.1155312e-38
0.032891482 0.0066417782 0.63000005 1.198111e-38
0.03186797 0.0086888047 0.63000005 8.6609886e-39
0.0073500238 -0.058206785 0.634 1.0697573e-38
0.0093952054 -0.058114983 0.63300002 1.2169823e-38
0.054730564 -0.033486508 0.634 8.9383e-39
0.052587464 -0.031376913 0.63300002 8.4758757e-39
0.051044885 -0.028805949 0.63300002 8.2896781e-39
0.048550498 -0.025246415 0.634 7.4581112e-39
0.047445528 -0.022121433 0.63300002 6.7205462e-39
0.039280389 -0.010826251 0.634 9.6765881e-39
0.038190044 -0.0056672385 0.63300002 9.0333683e-39
0.038250379 -0.0036161682 0.634 8.573109e-39
0.037220366 -0.001556145 0.634 1.05067e-38
0.034076497 0.005645019 0.63300002 8.7557024e-39
0.033048108 0.0077017932 0.63300002 9.8577311e-39
0.05275362 -0.03766587 0.63500005 1.2999224e-38
0.054816891 -0.034570962 0.63500005 1.2442454e-38
0.05275362 -0.030444415 0.63500005 9.0283264e-39
0.048703652 -0.024292795 0.63600004 7.7346981e-39
0.046637129 -0.020159751 0.63600004 6.9049374e-39
0.041470826 -0.014993447 0.63600004 1.4842057e-38
0.039404303 -0.0087938812 0.63600004 1.0505983e-38
0.039404303 -0.0062107285 0.63600004 1.0043201e-38
0.038888484 -0.0031117578 0.63600004 9.2156001e-39
0.036247436 -0.00052696315 0.63500005 1.2535726e-38
0.038401209 -0.0010448385 0.6365 9.1230458e-39
0.03633225 0.0015399386 0.6365 1.0229033e-38
0.035998154 0.002919106 0.63666672 9.9510044e-39
0.034184162 0.0066944915 0.63500005 9.2152414e-39
0.035326716 0.0056806905 0.63700002 9.0268844e-39
0.033204738 0.0087715555 0.63600004 9.4878598e-39
0.039528217 -0.0026024731 0.63800001 9.3981879e-39
0.034345664 0.0077626286 0.63800001 8.9357748e-39
0.032272644 0.010872159 0.63800001 8.9346916e-39
