# .PCD v0.7 - Point Cloud Data file format
VERSION 0.7
FIELDS x y z rgb
SIZE 4 4 4 4
TYPE F F F F
COUNT 1 1 1 1
WIDTH 691
HEIGHT 1
VIEWPOINT 0 0 0 1 0 0 0
POINTS 691
DATA ascii
-0.033068743 -0.038009029 0.10033333 1.4747615e-39
-0.031983025 -0.037936728 0.1 9.230381e-40
-0.032680705 -0.036146153 0.10166667 1.108507e-39
-0.031919986 -0.035745401 0.101 8.301194e-40
-0.03528988 -0.037257705 0.104 8.322732e-40
-0.034337182 -0.036823105 0.10333333 8.322732e-40
-0.035757139 -0.037402723 0.105 7.4007757e-40
-0.034435105 -0.037018903 0.105 8.3191306e-40
-0.040385392 -0.038964644 0.11191666 7.3972164e-40
-0.039537694 -0.039223474 0.11179167 9.2375136e-40
-0.039353512 -0.039564017 0.11300001 7.4007757e-40
0.023801507 -0.023185104 0.60700005 6.3589747e-39
0.026759947 -0.023185104 0.60700005 6.6344812e-39
0.015912334 -0.020226665 0.60700005 6.4497228e-39
0.019068005 -0.020621123 0.60700005 7.0932944e-39
0.020843068 -0.020719737 0.60700005 8.2914788e-39
0.023801507 -0.020719737 0.60700005 8.7520982e-39
0.026759947 -0.020719737 0.60700005 1.1334296e-38
0.02807481 -0.020555379 0.60700005 1.1980746e-38
0.014926186 -0.019240517 0.60700005 6.5408366e-39
0.015912334 -0.019240517 0.60700005 7.0000169e-39
0.018870773 -0.019240517 0.60700005 8.1063673e-39
0.020843068 -0.019240517 0.60700005 1.2071858e-38
0.023788979 -0.01922995 0.60666674 1.0505252e-38
0.026759947 -0.019240517 0.60700005 1.1795637e-38
0.02873224 -0.019240517 0.60700005 1.2256977e-38
0.011967746 -0.015789002 0.60700005 1.0413057e-38
0.014433112 -0.016282076 0.60700005 1.0505613e-38
0.015912334 -0.016282076 0.60700005 1.0229025e-38
0.01885296 -0.016267356 0.60644448 1.1059148e-38
0.020843068 -0.016282076 0.60700005 1.0875838e-38
0.023775913 -0.016264195 0.60633337 1.0874764e-38
0.026759947 -0.016282076 0.60700005 1.1060234e-38
0.028608972 -0.016405344 0.60700005 1.1521933e-38
0.011474673 -0.014309783 0.60700005 1.1335019e-38
0.014433112 -0.014309783 0.60700005 9.9528064e-39
0.015912334 -0.014309783 0.60700005 9.7684124e-39
0.018859869 -0.014301925 0.60666674 1.0506698e-38
0.020843068 -0.014309783 0.60700005 1.2443525e-38
0.023801507 -0.014309783 0.60700005 9.6744245e-39
0.026759947 -0.014309783 0.60700005 1.3365129e-38
0.028239168 -0.014309783 0.60700005 1.3091774e-38
0.011721209 -0.011597879 0.60700005 9.7687739e-39
0.014433113 -0.011351342 0.60700005 9.5840211e-39
0.015912334 -0.011351342 0.60700005 1.0507418e-38
0.018870773 -0.011351342 0.60700005 1.1061674e-38
0.020843068 -0.011351342 0.60700005 1.1983993e-38
0.023678238 -0.01147461 0.60700005 1.2261299e-38
0.026759947 -0.011844415 0.60700005 1.4011935e-38
0.027746094 -0.012337489 0.60700005 1.4012651e-38
0.014433112 -0.0083929021 0.60700005 1.0601058e-38
0.015912334 -0.0083929021 0.60700005 1.0969844e-38
0.018870773 -0.0083929021 0.60700005 1.041667e-38
0.020843068 -0.0083929021 0.60700005 1.0232279e-38
0.022815362 -0.0083929021 0.60700005 1.1522299e-38
0.014926186 -0.0074067549 0.60700005 1.0786531e-38
0.015912334 -0.0074067549 0.60700005 1.1062036e-38
0.018870773 -0.0074067549 0.60700005 1.0416668e-38
0.02437463 -0.028208479 0.60900003 9.3117642e-39
0.026848121 -0.028208479 0.60900003 9.5883455e-39
0.028826913 -0.028208479 0.60900003 9.0348088e-39
0.031795103 -0.028208479 0.60900003 7.1898228e-39
0.015964761 -0.025240289 0.60900003 9.0348116e-39
0.019180298 -0.025734987 0.60900003 9.9582112e-39
0.020894574 -0.026208963 0.6085 9.4975946e-39
0.023860326 -0.026208965 0.6085 8.2046964e-39
0.026826076 -0.026208963 0.6085 7.0057903e-39
0.028803244 -0.026208965 0.6085 7.2812968e-39
0.031795103 -0.026229687 0.60900003 7.8344677e-39
0.033114295 -0.025899887 0.60900003 7.7422721e-39
0.011512479 -0.023261497 0.60900003 6.3575244e-39
0.01447452 -0.023746647 0.60874999 6.6348357e-39
0.015951656 -0.023737097 0.6085 7.0965398e-39
0.018901862 -0.023717187 0.60800004 8.3887191e-39
0.020877406 -0.023717187 0.60800004 5.9923544e-39
0.02384072 -0.024211071 0.60800004 7.0047071e-39
0.026804034 -0.024211071 0.60800004 6.7273985e-39
0.028779579 -0.023717187 0.60800004 6.7263181e-39
0.031742893 -0.023717187 0.60800004 7.6475541e-39
0.03326574 -0.023746647 0.60874999 7.3709672e-39
0.0070601967 -0.020293308 0.60900003 6.3564454e-39
0.0090389885 -0.020788006 0.60900003 6.0798585e-39
0.011014495 -0.020782452 0.60883337 6.1727744e-39
0.014456891 -0.020753872 0.60800004 6.0816592e-39
0.015938548 -0.021247758 0.60800004 6.2660518e-39
0.01791409 -0.021247758 0.60800004 6.7263097e-39
0.029438093 -0.020918502 0.60800004 1.1888192e-38
0.031742893 -0.020753872 0.60800004 7.739391e-39
0.03325228 -0.020770939 0.6085 1.1613765e-38
0.0060708001 -0.019303912 0.60900003 5.9876629e-39
0.0090389885 -0.019303912 0.60900003 5.9876629e-39
0.01099969 -0.019272216 0.60800004 6.3568055e-39
0.013963005 -0.019272216 0.60800004 6.5408366e-39
0.031742893 -0.019272216 0.60800004 1.0783652e-38
0.033224553 -0.019272216 0.60800004 1.290559e-38
-0.013717123 -0.015346328 0.60900003 9.6787349e-39
-0.011243632 -0.015346328 0.60900003 6.9114352e-39
-0.0084403427 -0.015676126 0.60900003 8.2032461e-39
-0.0062966519 -0.015841026 0.60900003 7.0965398e-39
-0.0033284631 -0.015841026 0.60900003 6.9107108e-39
-0.0013496707 -0.015841026 0.60900003 6.633405e-39
0.0016185177 -0.016335724 0.60900003 6.1731387e-39
0.003102612 -0.016335724 0.60900003 7.0032581e-39
0.0060671167 -0.016327145 0.60866672 8.3847576e-39
0.0090241469 -0.0163089 0.60800004 8.2918403e-39
0.010717469 -0.016450012 0.6080001 8.4755085e-39
0.029767349 -0.015321129 0.60800004 1.0878727e-38
0.031742893 -0.0163089 0.60800004 1.152266e-38
0.03325228 -0.016322313 0.6085 1.1246795e-38
-0.013717123 -0.014356932 0.60900003 8.9411712e-39
-0.011243632 -0.014356932 0.60900003 7.2805723e-39
-0.0087701418 -0.014356932 0.60900003 1.0599614e-38
-0.0062966519 -0.014356932 0.60900003 1.0877278e-38
-0.0033284631 -0.014356932 0.60900003 9.7698543e-39
-0.0013496707 -0.014356932 0.60900003 8.9390202e-39
0.0016185178 -0.014356932 0.60900003 8.8475421e-39
0.003102612 -0.014356932 0.60900003 1.4103049e-38
0.0060608317 -0.014333357 0.60800004 1.3182174e-38
0.0090241469 -0.014333357 0.60800004 1.2628643e-38
0.010011918 -0.014333357 0.60800004 1.0413782e-38
0.029767349 -0.014333357 0.60800004 1.0510305e-38
0.031742893 -0.014333357 0.60800004 1.0877648e-38
0.033279195 -0.014356932 0.60900003 1.1708129e-38
-0.015695915 -0.010399347 0.60900003 9.5861875e-39
-0.013717123 -0.011388744 0.60900003 8.2021727e-39
-0.011243633 -0.011388744 0.60900003 9.3027511e-39
-0.0087701418 -0.011388744 0.60900003 1.1425414e-38
-0.0062966519 -0.011388744 0.60900003 1.2721558e-38
-0.0033284631 -0.011388744 0.60900003 1.3553126e-38
-0.0015970197 -0.011636093 0.60900003 1.4843499e-38
0.001247439 -0.011260597 0.60874999 1.3184339e-38
0.0030975174 -0.011370043 0.60800004 1.3368731e-38
0.0060608317 -0.011370043 0.60800004 1.1708852e-38
0.0090241469 -0.011370043 0.60800004 1.2722278e-38
0.010407027 -0.011172489 0.60800004 1.0507065e-38
0.024828492 -0.010382271 0.60800004 1.2723e-38
0.026804034 -0.010382271 0.60800004 1.4198482e-38
0.028909171 -0.011248706 0.60812509 9.6780244e-39
0.031777699 -0.011381969 0.60866666 1.1338265e-38
0.032784499 -0.011883441 0.60900003 1.161521e-38
-0.015695915 -0.0084205559 0.60900003 5.8983651e-39
-0.013717123 -0.0084205559 0.60900003 6.8192368e-39
-0.011243632 -0.0084205559 0.60900003 8.1042023e-39
-0.0087701418 -0.0084205559 0.60900003 1.0133955e-38
-0.0062966519 -0.0084205559 0.60900003 1.2996703e-38
-0.0033284631 -0.0084205559 0.60900003 1.1615216e-38
-0.0018443688 -0.0084205559 0.60900003 1.1984724e-38
0.0011237462 -0.0084159477 0.60866666 1.3553846e-38
0.003102612 -0.0084205559 0.60900003 1.3646761e-38
0.0060608326 -0.0084067285 0.60800004 1.3646761e-38
0.0090241469 -0.0084067285 0.60800004 1.3185057e-38
0.01099969 -0.0084067285 0.60800004 1.1985432e-38
0.024334606 -0.0084067285 0.60800004 1.0415951e-38
0.026804034 -0.0084067285 0.60800004 1.1154232e-38
0.028811676 -0.0084159467 0.60866672 1.0415232e-38
-0.013717123 -0.0074311593 0.60900003 7.0036281e-39
-0.011144692 -0.0066396422 0.60900003 8.5687832e-39
-0.0087701418 -0.0064417631 0.60900003 1.0229392e-38
-0.0062966519 -0.0064417631 0.60900003 1.1429378e-38
-0.0033284631 -0.0064417631 0.60900003 1.0784015e-38
-0.0013496707 -0.0064417631 0.60900003 1.2906674e-38
0.0016185177 -0.0064417631 0.60900003 1.3554205e-38
0.003102612 -0.0064417631 0.60900003 1.3738957e-38
0.0060647209 -0.0064357058 0.60844445 1.4199933e-38
0.0090241469 -0.0064311861 0.60800004 1.3461649e-38
0.010999689 -0.0064311856 0.60800004 1.2908111e-38
0.014358113 -0.0062336316 0.60800004 1.2353857e-38
0.015938548 -0.0059372997 0.60800004 1.2169825e-38
0.018901862 -0.0059373002 0.60800004 1.0324833e-38
0.020877406 -0.0064311852 0.60800004 9.771299e-39
0.023845257 -0.0064321808 0.60811114 1.0230478e-38
0.026833424 -0.0064376961 0.60866666 1.1061318e-38
0.028167315 -0.0071013607 0.60900003 1.0692534e-38
-0.0077807461 -0.003473575 0.60900003 1.1616289e-38
-0.0062966519 -0.003473575 0.60900003 1.0969841e-38
-0.0033284631 -0.003473575 0.60900003 1.0967324e-38
-0.0013496707 -0.003473575 0.60900003 1.2720839e-38
0.0016185178 -0.003473575 0.60900003 1.0879089e-38
0.003102612 -0.003473575 0.60900003 1.3091785e-38
0.0060708001 -0.003473575 0.60900003 1.3921551e-38
0.0090241469 -0.0034678713 0.60800004 1.5121891e-38
0.01099969 -0.0034678716 0.60800004 1.3092867e-38
0.014456891 -0.0034678713 0.60800004 1.3000668e-38
0.015938548 -0.0034678713 0.60800004 1.2630444e-38
0.018901862 -0.0034678716 0.60800004 8.9408209e-39
0.020877406 -0.0034678713 0.60800004 9.5861903e-39
0.023867404 -0.0034716737 0.60866666 9.5861875e-39
0.026848121 -0.003473575 0.60900003 9.1252094e-39
0.0017834172 -0.0021543801 0.60900003 1.2630805e-38
0.003102612 -0.0019894808 0.60900003 1.3091785e-38
0.0060708001 -0.0019894808 0.60900003 1.2723007e-38
0.0090315677 -0.0019874414 0.6085 1.4476879e-38
0.01099969 -0.001986214 0.60800004 1.3553486e-38
0.014456891 -0.0019862142 0.60800004 1.3276898e-38
0.015938548 -0.0019862142 0.60800004 1.3183618e-38
0.018901862 -0.0019862142 0.60800004 1.1431542e-38
0.020894574 -0.0019874414 0.6085 1.0141162e-38
0.023682054 -0.0020884206 0.60900003 9.9549686e-39
0.0021132159 0.0014734055 0.60900003 1.3276902e-38
0.003102612 0.00048400939 0.60900003 1.3645682e-38
0.0061944751 0.001349731 0.60900003 1.3369095e-38
0.0090389885 0.0014734055 0.60900003 1.3737879e-38
0.01101358 0.0014732289 0.60877782 1.3829712e-38
0.014468916 0.0014727373 0.6085 1.2630091e-38
0.015956024 0.0014731406 0.60866666 1.3183978e-38
0.018929677 0.0014733172 0.60888892 1.0693255e-38
0.020911744 0.0014734055 0.60900003 1.0047164e-38
0.023220336 0.00081380812 0.60900003 9.6773041e-39
0.0070601967 0.0034521979 0.60900003 1.346237e-38
0.0090389885 0.0034521979 0.60900003 1.2263103e-38
0.011017781 0.0034521979 0.60900003 1.2631889e-38
0.014480668 0.0034521979 0.60900003 1.2816277e-38
0.015964761 0.0034521979 0.60900003 1.1524096e-38
0.01893295 0.0034521979 0.60900003 1.0970201e-38
0.01126513 0.0056783389 0.60900003 1.3093224e-38
0.014480669 0.0064203856 0.60900003 1.2170187e-38
0.015964761 0.0064203865 0.60900003 1.106132e-38
0.018273352 0.0057607889 0.60900003 1.2168022e-38
0.028968915 -0.036301594 0.61200005 8.6649431e-39
0.031951725 -0.036301594 0.61200005 7.7429938e-39
0.033940267 -0.036301594 0.61200005 8.3883674e-39
0.036923077 -0.036301594 0.61200005 1.0417746e-38
0.024246134 -0.033567354 0.61200005 1.0050047e-38
0.025986105 -0.03381592 0.61200005 1.0785811e-38
0.02894525 -0.0337887 0.61150002 7.373491e-39
0.031925622 -0.0337887 0.61150002 7.3738469e-39
0.03392205 -0.033797774 0.61166668 9.1266485e-39
0.036923077 -0.03381592 0.61200005 1.0418469e-38
0.03824877 -0.033650208 0.61200005 9.1259282e-39
0.01654054 -0.030335976 0.61200005 9.9571224e-39
0.019026216 -0.030335976 0.61200005 1.0972359e-38
0.020509036 -0.031317852 0.61175001 1.124823e-38
0.023971155 -0.031296659 0.61133331 1.0142244e-38
0.025922414 -0.031254269 0.61049998 8.8497043e-39
0.028897917 -0.031254269 0.61050004 8.479477e-39
0.031873412 -0.031254269 0.61049998 7.7429924e-39
0.033875838 -0.031270791 0.61083335 9.4957911e-39
0.036862746 -0.031279054 0.611 1.0509584e-38
0.038414482 -0.031330246 0.61200005 9.0322963e-39
0.040900156 -0.031330246 0.61200005 7.1858557e-39
0.011320625 -0.028596003 0.61200005 8.3861954e-39
0.014043383 -0.028821412 0.61150002 8.1132056e-39
0.016025659 -0.028813422 0.61133337 9.3113957e-39
0.019475499 -0.02877428 0.61049998 1.1525536e-38
0.020963248 -0.02877428 0.61049998 1.1341144e-38
0.023671389 -0.028998062 0.61000001 9.4961555e-39
0.025901185 -0.029245818 0.61000001 9.4035941e-39
0.028874246 -0.029245818 0.61000001 9.4950653e-39
0.031847309 -0.029245818 0.61000001 7.3742141e-39
0.033838864 -0.028758297 0.61016673 8.7578688e-39
0.036862746 -0.02879744 0.611 1.0232639e-38
0.038367607 -0.028809426 0.61125004 1.0047524e-38
0.040900156 -0.028844569 0.61200005 7.2776884e-39
-0.0028477244 -0.025364624 0.61200005 5.5284896e-39
-0.0013563193 -0.025364624 0.61200005 7.2794807e-39
0.0016264908 -0.025364624 0.61200005 7.8319356e-39
0.0031178959 -0.025364624 0.61200005 6.9096192e-39
0.0060987738 -0.026351986 0.61183333 6.6326735e-39
0.0080826376 -0.026338173 0.61150002 6.1731331e-39
0.011053423 -0.026316365 0.611 7.2798436e-39
0.014510187 -0.026283929 0.61025 6.9128618e-39
0.016486486 -0.027263775 0.61000001 9.2195658e-39
0.018964039 -0.027263775 0.61000001 1.125003e-38
0.03449003 -0.026603095 0.61000001 8.6656731e-39
0.036802415 -0.026272755 0.61000001 8.5734761e-39
0.038336225 -0.026305465 0.61075002 8.1103358e-39
0.040900156 -0.026358895 0.61200005 7.0911364e-39
-0.0078190742 -0.023376085 0.61200005 4.8849292e-39
-0.0061619575 -0.023707509 0.61200005 4.3317527e-39
-0.003343696 -0.023863671 0.61175001 7.0036197e-39
-0.0013552113 -0.023854122 0.61150002 6.6348343e-39
0.001625162 -0.023854122 0.61150002 6.7259496e-39
0.0031128014 -0.023834212 0.611 6.6330323e-39
0.0060888059 -0.023827845 0.61083335 6.6326721e-39
0.0080694202 -0.023815114 0.61049998 6.3564454e-39
0.010788118 -0.024042957 0.61000001 6.5419156e-39
0.03482037 -0.023795202 0.61000001 7.0943818e-39
0.036802415 -0.023795202 0.61000001 7.4631685e-39
0.038320735 -0.023814708 0.61049998 7.278773e-39
0.040833328 -0.023834212 0.611 6.5390416e-39
-0.010784234 -0.020359954 0.611 7.1894529e-39
-0.0088061439 -0.02087375 0.61150002 5.0678758e-39
-0.0063173305 -0.020856276 0.611 5.2515468e-39
-0.0033382305 -0.020847945 0.61075002 8.0170513e-39
-0.0013529951 -0.020839615 0.61049998 6.2653316e-39
0.0016225043 -0.020839615 0.61049998 6.3564482e-39
0.0031077068 -0.020822141 0.61000001 6.2642511e-39
0.0058825649 -0.020921243 0.61000001 6.1720541e-39
0.03482037 -0.020822141 0.61000001 1.318253e-38
0.036802415 -0.020822141 0.61000001 9.6765783e-39
0.038320739 -0.020839209 0.61050004 9.0279634e-39
0.04136388 -0.020873344 0.61150002 7.0900532e-39
-0.012769525 -0.019367307 0.611 8.9411698e-39
-0.011280557 -0.019367307 0.611 7.649352e-39
-0.0087925559 -0.01935146 0.61049998 5.435938e-39
-0.006306991 -0.019335611 0.61000001 6.8188711e-39
-0.0033339285 -0.019335611 0.61000001 6.3582503e-39
-0.0013518869 -0.019335611 0.61000001 6.1731359e-39
0.0016211756 -0.019335611 0.61000001 5.9876657e-39
0.0031077068 -0.019335611 0.61000001 5.9876657e-39
0.03482037 -0.019335611 0.61000001 1.3460202e-38
0.036802415 -0.019335611 0.61000001 8.7567814e-39
0.037793435 -0.019335611 0.61000001 1.115135e-38
0.04136388 -0.019383157 0.61150002 6.8138264e-39
-0.012759076 -0.016872283 0.61049998 9.0333655e-39
-0.011262095 -0.016858058 0.61000001 6.4508102e-39
-0.0091148838 -0.017023228 0.61000001 7.0036239e-39
-0.006306991 -0.017353568 0.61000001 7.4649593e-39
-0.0033339285 -0.017353568 0.61000001 5.8054394e-39
-0.0013518869 -0.017353568 0.61000001 5.8965518e-39
0.03482037 -0.016362548 0.61000001 1.4381808e-38
0.036842633 -0.016379347 0.61066669 1.5028252e-38
0.034877457 -0.014404081 0.611 1.4935698e-38
0.033885457 -0.011426145 0.611 1.1799963e-38
0.036923077 -0.011444845 0.61200005 9.1241304e-39
0.031847309 -0.0084343823 0.61000001 1.0415951e-38
0.032892164 -0.0084482087 0.611 1.023156e-38
0.029229065 -0.0061267484 0.61050004 1.1060957e-38
0.031925622 -0.0069645299 0.61150002 1.0692898e-38
0.02842607 -0.0034849825 0.61100006 1.041343e-38
-0.0033339285 -0.0024882581 0.61000001 1.106132e-38
-0.0013518869 -0.0019927477 0.61000001 1.2905952e-38
0.0011256651 -0.0014972372 0.61000001 1.3368372e-38
0.024910163 -0.0014972372 0.61000001 9.586542e-39
0.025901185 -0.0019927477 0.61000001 9.6776587e-39
0.028275596 -0.0021628151 0.61133337 1.1153149e-38
-0.00085637649 0.00048480416 0.61000001 1.2169469e-38
0.0016211756 0.00048480416 0.61000001 1.3460931e-38
0.0031077068 0.0014758249 0.61000001 1.3553489e-38
0.024256289 0.0018068393 0.61016673 9.8609751e-39
0.02592949 0.0014779792 0.61066669 1.0230478e-38
0.027959412 0.0014803987 0.61166668 9.7705802e-39
0.02094608 0.0034578666 0.61000001 9.4010718e-39
0.023932755 0.003459756 0.61033332 1.0228674e-38
0.025943644 0.0034635349 0.611 1.0507065e-38
0.016981997 0.0074219494 0.61000001 1.2076191e-38
0.019558651 0.0066291327 0.61000001 1.0413785e-38
0.020957524 0.0064349845 0.61033338 9.4903891e-39
0.023839582 0.0063191135 0.61112499 9.8591717e-39
0.025986105 0.0054577435 0.61200005 1.0875128e-38
0.016486486 0.0094039906 0.61000001 1.0323753e-38
0.019459549 0.0094039906 0.61000001 1.0319788e-38
0.020980418 0.0094194077 0.611 9.9513617e-39
0.023500431 0.0094348239 0.61200005 1.0043919e-38
0.019987773 0.010412052 0.611 1.0965511e-38
0.020980418 0.010412052 0.611 1.0688924e-38
0.023003295 0.010429094 0.61200005 9.7669676e-39
0.033053663 -0.043402862 0.61400002 9.4947107e-39
0.028564826 -0.041407824 0.61400002 6.9110681e-39
0.030559864 -0.04190658 0.61400002 6.7266782e-39
0.033552423 -0.04190658 0.61400002 7.3727721e-39
0.035713714 -0.041740328 0.61400002 8.9404608e-39
0.03804126 -0.041407824 0.61400002 9.6801838e-39
0.024075991 -0.038415264 0.61400002 8.6663836e-39
0.025738522 -0.038747773 0.61400002 7.1898144e-39
0.02855299 -0.038898382 0.61375004 7.096174e-39
0.030783953 -0.038882744 0.6135 6.0823864e-39
0.033995721 -0.03885065 0.61299998 8.6649501e-39
0.036983408 -0.03885065 0.61300004 8.8504203e-39
0.038524531 -0.038898382 0.61375004 7.8355467e-39
0.041011542 -0.038726915 0.61366671 7.7412001e-39
0.019088395 -0.036420226 0.61400002 7.8337461e-39
0.021282936 -0.036819231 0.61400002 1.0603211e-38
0.024056384 -0.03688933 0.6135 8.4816392e-39
0.02553062 -0.03685886 0.61300004 8.019938e-39
0.028518304 -0.037356809 0.61300004 8.2958004e-39
0.031008042 -0.037356809 0.61300004 7.8355439e-39
0.033995725 -0.037356809 0.61300004 8.2968892e-39
0.036983408 -0.037356809 0.61300004 1.0048964e-38
0.038477249 -0.03685886 0.61300004 1.0141514e-38
0.04148205 -0.036874093 0.61325002 7.2798604e-39
0.043361362 -0.036752734 0.61400002 7.0947489e-39
0.011607 -0.033427671 0.61400002 7.4627957e-39
0.013103278 -0.033427671 0.61400002 7.8308594e-39
0.01629534 -0.033826675 0.61400002 8.8482553e-39
0.019072849 -0.03389921 0.6135 1.0049324e-38
0.020559326 -0.033885188 0.61325002 1.0049685e-38
0.023538832 -0.034369122 0.61300004 8.3901639e-39
0.038975198 -0.034369122 0.61300004 9.680181e-39
0.041464936 -0.033871174 0.61300004 7.3713288e-39
0.043527618 -0.033926427 0.61400002 6.8167159e-39
-0.00385455 -0.030435111 0.61400002 4.3335519e-39
-0.0013607517 -0.030435111 0.61400002 4.3313883e-39
0.0016318061 -0.030435111 0.61400002 6.7245104e-39
0.003793098 -0.031100124 0.61400002 6.7248692e-39
0.0066194031 -0.031432629 0.61400002 6.9096206e-39
0.0081156818 -0.031432629 0.61400002 6.7259496e-39
0.011101939 -0.031416107 0.61366671 7.278766e-39
0.013092607 -0.031407848 0.6135 7.7401071e-39
0.015820649 -0.031879388 0.61300004 9.9549644e-39
0.019057306 -0.032377332 0.61300004 1.0602497e-38
0.041962884 -0.031381439 0.61300004 7.0000239e-39
0.043028854 -0.031432629 0.61400002 6.63124e-39
-0.0058495887 -0.028938834 0.61400002 4.4268238e-39
-0.0038514109 -0.028915673 0.6135 4.240992e-39
-0.0013596436 -0.028915675 0.6135 5.0671499e-39
0.0016304773 -0.028915675 0.6135 7.186206e-39
0.0036222113 -0.028903689 0.61325002 6.8174235e-39
0.0066086217 -0.028891705 0.61300004 6.6330323e-39
0.0081024636 -0.028891703 0.61300004 6.3564454e-39
0.0105922 -0.02938965 0.61300004 6.7252307e-39
0.041962884 -0.028891703 0.61300004 7.1826117e-39
0.043028854 -0.028938834 0.61400002 6.9978617e-39
-0.006172026 -0.026070001 0.61300004 4.2409962e-39
-0.0041802372 -0.026733929 0.61300004 3.9640449e-39
-0.0013585355 -0.027397862 0.61300004 6.5408394e-39
0.0016291485 -0.027397862 0.61300004 7.3713148e-39
0.0031229905 -0.027397862 0.61300004 7.0018148e-39
0.041962884 -0.026401967 0.61300004 6.904943e-39
0.043028854 -0.026445035 0.61400002 6.8127488e-39
-0.007831851 -0.024410175 0.61300004 4.5172257e-39
-0.0068359561 -0.024410175 0.61300004 4.3328345e-39
0.041962884 -0.023912229 0.61300004 6.2610127e-39
0.043028854 -0.023951236 0.61400002 6.3532084e-39
0.043028854 -0.020958681 0.61400002 7.0907692e-39
0.037043739 -0.014474805 0.61400002 1.4567994e-38
0.035048701 -0.011482248 0.61400002 1.2352775e-38
0.034051184 -0.0084896898 0.61400002 9.4929157e-39
0.032999832 -0.0074799685 0.61300004 9.8627772e-39
0.030061105 -0.003502094 0.61400002 1.0600342e-38
0.029016253 -0.0015046007 0.61300004 1.1983628e-38
0.029047808 0.0014852375 0.61366671 1.1061319e-38
0.028020358 0.0034748723 0.61300004 1.2536448e-38
0.025710756 0.0071305414 0.6133334 1.0413787e-38
0.028043211 0.0059698801 0.6135 1.0047166e-38
0.02507351 0.0094656562 0.61400002 9.9517246e-39
0.021049095 0.011442029 0.61300004 1.0412337e-38
0.024036778 0.010446134 0.61300004 1.0228312e-38
0.024193626 -0.045619715 0.61700004 7.8337461e-39
0.026198411 -0.045619715 0.61700004 7.9273794e-39
0.029158255 -0.045545775 0.61600006 8.7582247e-39
0.030684294 -0.046083942 0.61650002 1.0233718e-38
0.033688631 -0.045582745 0.61650002 1.1156031e-38
0.018179266 -0.042612538 0.61700004 6.3564454e-39
0.021379732 -0.042999677 0.61680001 8.2021671e-39
0.02417402 -0.043079197 0.61650002 7.9263032e-39
0.025488771 -0.043210652 0.61600006 9.0330095e-39
0.028611351 -0.043473553 0.61500001 7.1876578e-39
0.030609637 -0.043473553 0.61500001 7.0958265e-39
0.034106642 -0.043473553 0.61500001 1.0048964e-38
0.035664063 -0.04354424 0.61600006 1.0510303e-38
0.038165171 -0.042543471 0.61600006 1.0694696e-38
0.016675677 -0.041610144 0.61700004 6.1720541e-39
0.018179266 -0.041610144 0.61700004 6.2642497e-39
0.021152109 -0.041542701 0.61600006 1.0231186e-38
0.024115203 -0.041475262 0.61500001 6.9125142e-39
0.025780441 -0.041808311 0.61500001 8.5716712e-39
0.028611351 -0.042474408 0.61500001 6.9110681e-39
0.037104074 -0.042474408 0.61500001 1.0417749e-38
0.039102361 -0.041475262 0.61500001 1.0048966e-38
0.040231917 -0.041610144 0.61700004 1.0786889e-38
-0.0013674003 -0.038101766 0.61700004 4.700538e-39
0.0011379673 -0.038582649 0.61666673 5.067517e-39
0.0036425965 -0.038582649 0.61666673 7.3724064e-39
0.0066481512 -0.038582649 0.61666673 6.4504459e-39
0.008654329 -0.038592804 0.61683339 6.2642526e-39
0.011657409 -0.038582649 0.61666673 6.0798585e-39
0.013160187 -0.038582649 0.61666673 5.9876629e-39
0.016032999 -0.038689561 0.61637509 6.2642511e-39
0.01915057 -0.039040782 0.61600006 6.9110625e-39
0.021128945 -0.038998805 0.61533338 1.0510655e-38
0.024115203 -0.039476976 0.61500001 8.2965221e-39
0.025114346 -0.039476976 0.61500001 6.4526095e-39
0.042099793 -0.039476976 0.61500001 1.0876926e-38
0.043479245 -0.038853135 0.61566669 1.0507784e-38
0.046171319 -0.037539627 0.61600006 1.1154587e-38
-0.0013651841 -0.036538858 0.61600006 4.6076235e-39
0.0011367372 -0.036538858 0.61600006 5.1593511e-39
0.0036386587 -0.036538858 0.61600006 7.0958195e-39
0.0066409642 -0.036538858 0.61600006 6.8192284e-39
0.0081421174 -0.036538858 0.61600006 6.0809403e-39
0.011137851 -0.036519084 0.61566669 6.448641e-39
0.013124619 -0.036479544 0.61500001 6.0798585e-39
0.016371837 -0.036729328 0.61500001 7.3706015e-39
0.019119482 -0.037478689 0.61500001 7.6486331e-39
0.020118626 -0.037478689 0.61500001 1.0326262e-38
0.044098079 -0.037478689 0.61500001 7.8319524e-39
0.04609637 -0.036479544 0.61500001 8.2932851e-39
-0.0038687303 -0.03303536 0.61600006 4.7945301e-39
-0.001364076 -0.034009717 0.61550003 4.606899e-39
0.0011358697 -0.03402333 0.61575007 5.2515412e-39
0.0036327518 -0.033981685 0.61500001 6.5415597e-39
0.0066301837 -0.033981685 0.61500001 6.6341155e-39
0.0081288991 -0.033981685 0.61500001 6.7263097e-39
0.010876546 -0.034231469 0.61500001 6.4490011e-39
0.013124619 -0.034481257 0.61500001 6.8167047e-39
0.015122907 -0.034481257 0.61500001 7.3698784e-39
0.046196301 -0.033554163 0.61633343 6.6305225e-39
-0.0058781696 -0.030583819 0.61700004 5.5328168e-39
-0.0028616837 -0.032482971 0.61500001 4.3328345e-39
-0.001362968 -0.032482971 0.61500001 4.2391955e-39
0.0016344639 -0.032482971 0.61500001 5.6196034e-39
0.0031331796 -0.032482971 0.61500001 6.7252307e-39
0.044133931 -0.03150861 0.61550003 6.3546517e-39
0.046246275 -0.030583819 0.61700004 6.3539314e-39
0.044193685 -0.028547613 0.61633337 6.7216322e-39
0.044241488 -0.025571853 0.61700004 7.0893315e-39
-0.0098556913 -0.023490673 0.61500001 8.2965193e-39
0.044241488 -0.024068264 0.61700004 6.9056591e-39
-0.010854835 -0.021492386 0.61500001 8.6645829e-39
0.044169784 -0.021527333 0.61600006 6.3535615e-39
0.038134195 -0.016009694 0.61550003 1.5121162e-38
0.037164401 -0.012520418 0.61600006 9.2181267e-39
0.038165171 -0.014521954 0.61600006 1.4752383e-38
0.035162866 -0.010518881 0.61600006 1.1430819e-38
0.034217555 -0.0075287772 0.61700004 9.95497e-39
0.03110921 -0.0055060852 0.61500001 1.2628646e-38
0.033107497 -0.006505229 0.61500001 1.0508865e-38
0.030660221 -0.0030139291 0.61600006 1.2075472e-38
0.030159023 -0.0015119642 0.61600006 1.0601061e-38
0.030207984 0.00099156401 0.61700004 1.0601064e-38
0.029110922 0.0034862093 0.61500001 1.1891078e-38
0.028824667 0.0064947251 0.616 1.0507785e-38
0.026155951 0.0094964886 0.61600006 9.9535239e-39
0.021255121 -0.047778875 0.61900002 7.1869347e-39
0.0014774874 -0.046102803 0.61900002 6.0852717e-39
0.0031535581 -0.04576759 0.61900002 5.1625951e-39
0.016478319 -0.046018999 0.61900002 6.5408366e-39
0.018223461 -0.046233442 0.61849999 6.4486424e-39
0.021231957 -0.04622085 0.61833334 6.9107066e-39
0.024232836 -0.046697669 0.61800003 7.5568046e-39
0.026255568 -0.046722859 0.61833334 8.2043321e-39
0.029300259 -0.046773233 0.61900002 1.0049324e-38
-0.00086830964 -0.043218952 0.61849999 5.810847e-39
0.0011412955 -0.043201279 0.61825001 5.6228516e-39
0.0036551058 -0.043236218 0.61875004 5.5299343e-39
0.006840914 -0.043085877 0.61900002 5.897628e-39
0.0086845914 -0.043253481 0.61900002 5.6206824e-39
0.011701519 -0.043253485 0.61900002 5.7117976e-39
0.013199312 -0.043218952 0.61849999 5.7114375e-39
0.016204793 -0.043195393 0.61816669 6.1720541e-39
0.018208729 -0.043685615 0.61800003 6.448641e-39
0.020216765 -0.043685615 0.61800003 6.3571741e-39
0.039356682 -0.042750664 0.61900002 1.1155674e-38
-0.00086760765 -0.041677579 0.61800003 4.8863712e-39
0.0011404279 -0.041677579 0.61800003 5.2533502e-39
0.0036504725 -0.041677579 0.61800003 5.9909097e-39
0.0066625252 -0.041677579 0.61800003 6.1745751e-39
0.008670561 -0.041677579 0.61800003 5.8043534e-39
0.011682615 -0.041677579 0.61800003 5.8958288e-39
0.013188641 -0.041677579 0.61800003 5.8954672e-39
0.015196676 -0.041677579 0.61800003 5.8954672e-39
0.042305157 -0.041677579 0.61800003 1.2169463e-38
-0.0013696165 -0.039669544 0.61800003 5.1615161e-39
0.044313192 -0.039669544 0.61800003 1.1340062e-38
0.045390539 -0.038728096 0.61900002 1.1062391e-38
0.047325246 -0.036657494 0.61800003 1.050598e-38
0.047325246 -0.034147449 0.61800003 7.091142e-39
0.045390539 -0.029677313 0.61900002 7.3680834e-39
0.033268999 -0.0055329436 0.61800003 1.2814835e-38
0.031311546 -0.0025249701 0.61900002 1.1614494e-38
0.030256946 0.0024991976 0.61800003 1.0416667e-38
0.030256946 0.0035032155 0.61800003 1.170776e-38
0.030305903 0.0055201687 0.61900002 1.1615565e-38
0.027244892 0.0095273219 0.61800003 1.0137915e-38
0.029300259 0.0075314539 0.61900002 1.1521217e-38
0.0036740999 -0.051041983 0.62200004 5.901235e-39
0.016810812 -0.051041983 0.62200004 7.0032665e-39
0.018326586 -0.051041983 0.62200004 7.9273878e-39
0.020347619 -0.051041983 0.62200004 1.0417749e-38
0.0014823348 -0.048295815 0.62133336 6.7306369e-39
0.0036694666 -0.048457399 0.62125003 5.7146843e-39
0.0061954064 -0.048477102 0.62150002 6.3575328e-39
0.0087233763 -0.048496399 0.62175 7.1862088e-39
0.011758231 -0.048515692 0.62200004 7.0018176e-39
0.013768186 -0.048477098 0.62150002 6.6333966e-39
0.016776826 -0.048418399 0.62075007 6.5415597e-39
0.018282391 -0.048399102 0.62050003 6.6341183e-39
0.021310065 -0.048507709 0.62060004 7.4638859e-39
0.023845214 -0.048438508 0.62100005 9.2177665e-39
0.026382409 -0.047958981 0.62133336 9.8645737e-39
0.0001368516 -0.046848793 0.62 6.2714608e-39
0.003830164 -0.046513036 0.62 5.4377401e-39
0.0061833523 -0.04636405 0.62024999 6.3582517e-39
0.0087056365 -0.046382941 0.62050003 6.3575272e-39
0.011729874 -0.046382945 0.62050003 6.1727772e-39
0.013574193 -0.046538223 0.62033337 5.9880244e-39
0.016253125 -0.046848793 0.62 6.6330323e-39
0.0051731868 -0.043826994 0.62 5.4377387e-39
0.043589495 -0.041947339 0.62200004 1.2353854e-38
0.047478404 -0.037783392 0.62 1.1615565e-38
0.048642077 -0.036894757 0.62200004 1.1062391e-38
0.047478404 -0.032747056 0.62 6.63124e-39
0.048642077 -0.034368467 0.62200004 6.9089087e-39
0.047554981 -0.030782092 0.62100005 6.3539314e-39
0.045463867 -0.028717989 0.62 8.5659035e-39
0.035505362 -0.0075897886 0.62200004 1.0047166e-38
0.034494847 -0.0055687563 0.62200004 1.1433337e-38
0.032421604 -0.0035420198 0.62100005 1.35524e-38
0.031362131 -0.0015217821 0.62 1.1062039e-38
0.031438008 0.00099920202 0.62150002 1.1062042e-38
0.030403821 0.006546896 0.62100005 1.1614843e-38
0.029442266 0.0095889866 0.62200004 1.0137915e-38
0.0041860775 -0.052136187 0.62300003 6.0863451e-39
0.0062153433 -0.051671963 0.62349999 6.1756611e-39
0.0087477267 -0.051671959 0.62349999 7.3706015e-39
0.011782064 -0.051651042 0.62325001 8.2010867e-39
0.013806752 -0.051651038 0.62325001 7.3713302e-39
0.016837839 -0.052136187 0.62300003 9.3096006e-39
0.018385515 -0.052219875 0.62400001 1.0510305e-38
0.021916524 -0.051165078 0.62349999 1.0970923e-38
0.025481872 -0.049178578 0.62400001 1.0602137e-38
0.047784716 -0.039040923 0.62400001 1.1985786e-38
0.048798479 -0.032958332 0.62400001 6.7234356e-39
0.047708135 -0.029869089 0.62300003 6.4461271e-39
0.03252602 -0.0025412866 0.62300003 1.2814835e-38
0.031539172 0.0030283225 0.62349999 1.198399e-38
0.03050174 0.007580122 0.62300003 1.3365118e-38
0.0042062351 -0.055438288 0.62600005 6.9168302e-39
0.0062435879 -0.055807352 0.62633342 6.4544158e-39
0.0087898169 -0.055991888 0.62650001 8.5713181e-39
0.011335196 -0.055482566 0.62650001 9.7716578e-39
0.0041995156 -0.053318951 0.625 7.4682005e-39
0.0062302956 -0.053318951 0.625 6.7288362e-39
0.0087687708 -0.053318951 0.625 7.3706029e-39
0.011307247 -0.053318951 0.625 7.9237851e-39
0.013845721 -0.053318951 0.625 8.2014538e-39
0.016905813 -0.053361602 0.62550002 1.0694687e-38
0.019430367 -0.05230356 0.625 1.0510305e-38
0.048876684 -0.038088098 0.625 1.2077622e-38
0.05005173 -0.036172699 0.62700003 9.5851029e-39
0.049971901 -0.034080982 0.62600005 7.2776884e-39
0.05005173 -0.033116784 0.62700003 7.1844138e-39
0.048954889 -0.030520616 0.62600005 6.8149096e-39
0.046883382 -0.028464239 0.62550002 8.0127311e-39
0.035733692 -0.0061122631 0.62600005 1.143262e-38
0.034661222 -0.0035648346 0.625 1.3185054e-38
0.032656543 -0.0010267745 0.62550002 1.2261663e-38
0.03273486 0.0015169544 0.62700003 1.1799607e-38
0.031640343 0.0060866424 0.62550002 1.336692e-38
0.03069758 0.0096660694 0.62700003 9.1190829e-39
0.010341258 -0.056635674 0.62800002 1.0878724e-38
0.013923665 -0.055659689 0.62849998 1.1247507e-38
0.050211381 -0.03117864 0.62900001 6.9071052e-39
0.049189493 -0.029134864 0.62900001 7.0914965e-39
0.036868121 -0.0076630013 0.62800002 9.4010718e-39
0.036926828 -0.0066533154 0.62900001 1.0507419e-38
0.033861164 -0.0025657611 0.62900001 1.2261661e-38
0.035847858 -0.003581946 0.62800002 1.327725e-38
0.033861164 -0.0015438725 0.62900001 1.3644596e-38
0.032813169 0.0030526039 0.62849998 1.1154233e-38
0.031817388 0.0076531242 0.62900001 1.1521206e-38
0.0088389218 -0.05783955 0.63000005 1.226058e-38
0.010407126 -0.058023173 0.63200003 1.244641e-38
0.012421219 -0.056816038 0.63000005 1.1986511e-38
0.050291207 -0.038392805 0.63000005 1.2722991e-38
0.051396176 -0.036405094 0.63100004 1.0969479e-38
0.051355451 -0.033813402 0.63050008 7.5535648e-39
0.050924331 -0.030789994 0.63150001 7.5524774e-39
0.038069382 -0.0087231221 0.63100004 1.0230114e-38
0.036985535 -0.0056403801 0.63000005 1.2260215e-38
0.036561027 -0.0030893402 0.63150001 1.2998502e-38
0.033914994 -0.00052281382 0.63000005 1.2630447e-38
0.033968832 0.001526632 0.63100004 1.2076194e-38
0.034022667 0.0025558139 0.63200003 1.0877648e-38
0.032943692 0.0061405646 0.63100004 1.3271125e-38
0.031969141 0.0087163886 0.63200003 8.9361308e-39
0.013508754 -0.057086594 0.63300002 1.2447489e-38
0.052670542 -0.03554653 0.634 1.1152434e-38
0.052670542 -0.034001514 0.634 8.2911299e-39
0.051640533 -0.030396473 0.634 8.1063701e-39
0.050530691 -0.029320141 0.63300002 7.9212572e-39
0.048035491 -0.025761422 0.634 7.457035e-39
0.038220212 -0.0061859088 0.63349998 9.6783775e-39
0.037220366 -0.0025861566 0.634 1.0875847e-38
0.034130331 0.0035939137 0.634 1.161521e-38
0.033100318 0.0077139605 0.634 1.0500936e-38
0.054816891 -0.034570962 0.63500005 1.1983277e-38
0.05275362 -0.031476051 0.63500005 8.8435792e-39
0.048627071 -0.028381143 0.63500005 6.9974988e-39
0.050690345 -0.028381143 0.63500005 8.4726289e-39
0.04767039 -0.026359318 0.63600004 7.457035e-39
0.046710458 -0.02019145 0.63700002 6.9978547e-39
0.041536029 -0.016051907 0.63700002 1.5210121e-38
0.039435282 -0.0087999823 0.6365 1.0598542e-38
0.039466258 -0.0067379368 0.63700002 9.8595318e-39
0.038371041 -0.0031101331 0.63600004 9.1248464e-39
0.036290653 -0.0010434038 0.63575 1.2167662e-38
0.035215799 0.0015363095 0.63500005 1.133718e-38
0.035271257 0.0025719898 0.63600004 1.0966956e-38
0.034237996 0.006189215 0.63600004 9.1223213e-39
0.033256944 0.0087853465 0.63700002 9.9459611e-39
0.032171477 0.010838077 0.63600004 9.2101967e-39
0.039528217 -0.0057120039 0.63800001 1.0042122e-38
0.039590169 -0.0036446871 0.63900006 9.8580871e-39
0.038521871 -0.0010481228 0.63850003 9.3070783e-39
0.037455194 0.0015435676 0.63800001 9.2112757e-39
0.035382174 0.0036165877 0.63800001 1.0043557e-38
0.037513901 0.0025841217 0.63900006 9.2112729e-39
0.034399495 0.0077747959 0.63900006 9.3023923e-39
0.035493091 0.0057074442 0.64000005 9.4867836e-39
