# .PCD v0.7 - Point Cloud Data file format
VERSION 0.7
FIELDS x y z rgb
SIZE 4 4 4 4
TYPE F F F F
COUNT 1 1 1 1
WIDTH 673
HEIGHT 1
VIEWPOINT 0 0 0 1 0 0 0
POINTS 673
DATA ascii
0.010121045 0.058843173 0.0042374134 9.2112729e-39
0.0080139423 0.059778512 0.0062373877 8.9375727e-39
0.0048889956 0.060762815 0.0072373748 9.8588101e-39
0.0069831009 0.060873732 0.0052374005 9.1180011e-39
-0.0013438916 0.064977311 0.0062373877 9.4893017e-39
0.00073479716 0.063997887 0.0052374005 9.0301242e-39
0.0028127262 0.062839083 0.0072373748 8.7510178e-39
0.012138898 0.055524811 0.0082374215 9.5840239e-39
0.0090172002 0.058582127 0.0092374086 1.0041757e-38
0.010065877 0.057597831 0.0082374215 8.8435792e-39
0.00073811639 0.060651898 0.0092374086 1.3275811e-38
0.0038427729 0.060651898 0.0092374086 1.0966958e-38
-0.0044452641 0.0648534 0.0082374215 1.0134318e-38
-0.0013357336 0.064335145 0.0082374215 9.3989096e-39
0.00073811651 0.06272167 0.0092374086 1.059745e-38
-0.019959593 0.073070526 0.0092374086 6.6290694e-39
-0.028284997 0.077291526 0.0082374215 8.2900397e-39
-0.056940045 0.031645197 0.01223743 1.0695775e-38
-0.056940045 0.035765242 0.01223743 1.2077628e-38
0.0048606526 0.059455514 0.01223743 1.1707406e-38
0.006938511 0.059563182 0.010237396 8.6635039e-39
0.0079506878 0.058425501 0.01223743 1.151905e-38
0.0028030486 0.060540982 0.011237383 1.1246063e-38
-0.00080971769 0.063150242 0.010737389 9.216319e-39
-0.025009684 0.073875681 0.01223743 7.1815243e-39
-0.029177673 0.077047169 0.011237383 7.92126e-39
-0.027159097 0.076095358 0.010237396 8.1042023e-39
-0.033820849 0.078078806 0.011237413 9.3996425e-39
-0.031239321 0.078078806 0.011237413 8.2904096e-39
-0.056756433 0.034192167 0.014237404 1.1801041e-38
-0.055819854 0.038833939 0.013237417 1.2262019e-38
0.0089563644 0.057294324 0.014237404 1.1612328e-38
0.0038265968 0.059401684 0.013237417 1.0692538e-38
-0.001311259 0.062428139 0.014237404 1.0507417e-38
-0.0023437249 0.063515231 0.013237417 8.6635039e-39
-0.022911465 0.072770715 0.013237417 7.2740759e-39
-0.03622118 0.076802813 0.014237404 1.2262019e-38
-0.030060604 0.076802813 0.014237404 7.5521215e-39
-0.028053399 0.075855874 0.013237417 7.8286944e-39
-0.055459119 0.029551577 0.017237425 6.1810687e-39
-0.055459119 0.030573465 0.017237425 5.9044818e-39
-0.055549297 0.037746403 0.016237378 1.1893236e-38
-0.054525789 0.039282486 0.016237408 1.0879087e-38
-0.054614346 0.040841531 0.015237391 1.1524457e-38
-0.052393451 0.04283613 0.017237425 1.0694333e-38
0.0038128402 0.058729239 0.016237408 1.0785811e-38
0.0068939216 0.058268875 0.015237391 1.3642068e-38
-0.027868122 0.07451468 0.017237425 7.0911293e-39
-0.033543766 0.076639906 0.016237378 8.1089036e-39
-0.032008495 0.076639906 0.016237378 7.2769808e-39
-0.028985897 0.075696222 0.015237391 7.2758849e-39
-0.055368934 0.031585388 0.018237412 5.8112072e-39
-0.055368934 0.034136046 0.018237412 1.0140083e-38
-0.055368934 0.035666443 0.018237412 1.0877645e-38
-0.054260109 0.037687253 0.019237399 1.0879087e-38
-0.052222829 0.039724533 0.019237399 8.6624361e-39
-0.051287878 0.044848815 0.018237412 1.0510302e-38
0.011951447 0.053985488 0.019237399 1.0045002e-38
0.0078874324 0.057091989 0.018237412 1.3365129e-38
0.010948224 0.056071725 0.018237412 8.3811619e-39
0.0032950349 0.058086146 0.018737406 1.0877648e-38
-0.00027222431 0.060097322 0.019237399 1.401409e-38
-0.02476101 0.072395943 0.018237412 7.0893287e-39
-0.028794123 0.074358277 0.019237399 6.6305155e-39
-0.029862331 0.075456738 0.018237412 6.7227112e-39
-0.054127268 0.029020365 0.02073741 6.9168316e-39
-0.052009553 0.029014457 0.021737427 7.4689194e-39
-0.054171547 0.030548435 0.020237386 6.3636593e-39
-0.051502675 0.030535918 0.021737427 6.3614929e-39
-0.054171547 0.033599477 0.020237386 6.6359288e-39
-0.051502675 0.033579651 0.021737427 6.9096304e-39
-0.049939368 0.034079924 0.02223742 7.1851369e-39
-0.054171547 0.035633508 0.020237386 9.2148897e-39
-0.051544517 0.035617042 0.021237433 8.0145374e-39
-0.049939368 0.035600573 0.02223742 7.8312251e-39
-0.051460039 0.038464405 0.021037424 7.554641e-39
-0.049939368 0.038641874 0.02223742 7.462444e-39
-0.051587168 0.041722488 0.02073741 9.1262884e-39
-0.049939368 0.041683167 0.02223742 7.4635244e-39
-0.051120505 0.043261118 0.020237386 9.956049e-39
-0.049939368 0.043203816 0.02223742 7.9259445e-39
-0.050021429 0.046786331 0.021237433 1.0786883e-38
-0.047911838 0.048779525 0.02223742 1.0137918e-38
0.0048039658 0.056889653 0.02223742 1.1523015e-38
0.0068404144 0.056940235 0.021237433 1.2537167e-38
0.0088833617 0.055973805 0.020237386 1.345624e-38
-0.0012827051 0.059986405 0.021237433 1.3829699e-38
-0.028650291 0.073616788 0.02223742 6.2617316e-39
-0.035865281 0.07529708 0.020237386 1.161521e-38
-0.033267491 0.075217254 0.021237433 7.5535592e-39
-0.031797223 0.07529708 0.020237386 6.8156285e-39
-0.048764728 0.027483512 0.024237394 6.6402377e-39
-0.04573318 0.025462478 0.024237394 6.3636565e-39
-0.044722661 0.025462478 0.024237394 6.8235556e-39
-0.050869446 0.029005192 0.023237407 6.3629334e-39
-0.048805758 0.02900224 0.023737401 5.6246467e-39
-0.046238437 0.028999284 0.024237394 5.1618707e-39
-0.044722661 0.029504543 0.024237394 5.5284896e-39
-0.048845164 0.030523404 0.023237407 5.5306518e-39
-0.046238437 0.03051506 0.024237394 6.0820249e-39
-0.044722661 0.03051506 0.024237394 6.2660546e-39
-0.048339095 0.033306792 0.023237407 6.7252377e-39
-0.046251301 0.033549085 0.02407073 6.6333966e-39
-0.044722661 0.033041351 0.024237394 6.1731387e-39
-0.047833025 0.03659625 0.023237407 7.1858557e-39
-0.046238437 0.036578156 0.024237394 6.6330379e-39
-0.047833025 0.038620528 0.023237407 6.5415653e-39
-0.04633949 0.038397085 0.024237394 5.9883901e-39
-0.047833025 0.041656949 0.023237407 6.4493697e-39
-0.046743695 0.041630737 0.024237394 6.2649784e-39
-0.047754213 0.04314651 0.024237394 6.4493697e-39
-0.048427891 0.046009641 0.024237394 8.110333e-39
-0.047833025 0.047729798 0.023237407 8.9393748e-39
0.011377213 0.053802647 0.023237407 1.0413783e-38
0.0032788764 0.056813773 0.023737401 1.124571e-38
0.0078241769 0.055777967 0.024237394 1.1429021e-38
-0.0012716955 0.058835618 0.023737401 1.2630804e-38
-0.011375628 0.064872615 0.024237394 1.3090346e-38
-0.038659561 0.070935704 0.024237394 1.1708839e-38
-0.027543887 0.070935711 0.024237394 8.5662594e-39
-0.026533371 0.070935711 0.024237394 7.0900503e-39
-0.024512339 0.070935711 0.024237394 6.9978519e-39
-0.037649047 0.072956741 0.024237394 1.1893231e-38
-0.031585947 0.073967256 0.024237394 6.5390416e-39
-0.028602347 0.073033318 0.023237407 6.1698933e-39
-0.02896215 0.019418437 0.026237428 4.9782039e-39
-0.035952892 0.022444889 0.027237415 4.7956035e-39
-0.03193032 0.021439249 0.027237415 4.7938126e-39
-0.043530554 0.024455473 0.026737422 7.0083056e-39
-0.041049354 0.024454771 0.026237428 4.6119409e-39
-0.038027551 0.023951137 0.026237428 4.7008925e-39
-0.035952892 0.023953354 0.027237415 4.5157796e-39
-0.046330214 0.026807448 0.025237381 6.1778275e-39
-0.043303538 0.026807448 0.025237381 5.5313763e-39
-0.041049354 0.026469305 0.026237428 4.9774808e-39
-0.038531184 0.026469305 0.026237428 4.9756787e-39
-0.036958534 0.026467459 0.027237415 4.9753186e-39
-0.043303538 0.028825231 0.025237381 5.1615119e-39
-0.041049354 0.028987471 0.026237428 5.5299301e-39
-0.038466997 0.028981565 0.027237415 6.9121471e-39
-0.037461355 0.028981565 0.027237415 6.6355602e-39
-0.042630944 0.030506715 0.025237381 5.6210481e-39
-0.041049354 0.030498372 0.026237428 6.0827438e-39
-0.038466997 0.031495672 0.027237415 5.9909097e-39
-0.037461355 0.031495672 0.027237415 6.0831053e-39
-0.04313539 0.033785611 0.025237381 5.6203251e-39
-0.041049354 0.033520173 0.026237428 5.6203237e-39
-0.038466997 0.033506956 0.027237415 5.6214055e-39
-0.037461355 0.033004135 0.027237415 5.7136011e-39
-0.043639835 0.036560066 0.025237381 5.8032772e-39
-0.041049354 0.036541972 0.026237428 5.7110788e-39
-0.038466997 0.036523882 0.027237415 5.6188831e-39
-0.04565762 0.039586741 0.025237381 5.8954728e-39
-0.043628052 0.038574021 0.025404057 5.6188845e-39
-0.041015632 0.038042612 0.026737422 5.7110774e-39
-0.038466997 0.038032345 0.027237415 5.8032716e-39
-0.04565762 0.041604523 0.025237381 6.356451e-39
-0.043604489 0.041591417 0.025737405 6.1720583e-39
-0.040998369 0.041055825 0.026987419 5.803273e-39
-0.038466997 0.040546451 0.027237415 5.711076e-39
-0.046162065 0.043117858 0.025237381 6.2646169e-39
-0.043903276 0.042921335 0.026237428 6.2642554e-39
-0.041483924 0.043060556 0.027237415 6.0798613e-39
-0.046124279 0.046127774 0.025737405 6.8174305e-39
-0.04453782 0.046093844 0.026737422 6.6330379e-39
-0.042154353 0.045909882 0.027237415 6.3564524e-39
-0.046066798 0.048618563 0.02648741 7.8319468e-39
-0.04450085 0.047585949 0.027237415 7.7386666e-39
-0.046279836 0.050993621 0.025904059 9.124845e-39
0.011832159 0.051650982 0.026237428 9.6762167e-39
0.0088225259 0.054720119 0.025237381 1.1427936e-38
0.010840309 0.05270233 0.025237381 1.0044999e-38
-0.00025504304 0.056687318 0.026237428 1.1062039e-38
0.0017602855 0.0567379 0.025237381 1.0876929e-38
0.0042728018 0.05563109 0.027237415 1.0969481e-38
0.006795825 0.055680051 0.026237428 1.1430819e-38
-0.0042751576 0.059653655 0.027237415 1.1247867e-38
-0.0017630912 0.058674932 0.026737422 1.253825e-38
-0.013864933 0.06477724 0.025737405 1.4015897e-38
-0.011314653 0.063676223 0.027237415 1.1154238e-38
-0.040478278 0.068201616 0.027237415 1.1525536e-38
-0.03853118 0.06978178 0.026237428 1.1247861e-38
-0.026902109 0.069710083 0.027237415 6.5375954e-39
-0.023885183 0.069710083 0.027237415 6.6290694e-39
-0.022414915 0.069781788 0.026237428 6.3535643e-39
-0.037461352 0.070715718 0.027237415 1.1062391e-38
-0.028937366 0.07075239 0.026737422 6.6297911e-39
-0.036073145 0.073889054 0.025237381 1.1339342e-38
-0.033046469 0.073889054 0.025237381 6.9081898e-39
-0.031427495 0.072727002 0.027237415 6.4461271e-39
-0.02951535 0.072880164 0.025237381 6.2610127e-39
-0.027312294 0.019447017 0.02923739 4.5157824e-39
-0.033382718 0.022449544 0.028237402 4.6097815e-39
-0.031374682 0.022449544 0.028237402 4.333189e-39
-0.028840668 0.020445459 0.028737396 4.4250301e-39
-0.033382718 0.023955571 0.028237402 4.5147006e-39
-0.031990126 0.023790719 0.02923739 4.3306709e-39
-0.035390753 0.026465613 0.028237402 4.9756745e-39
-0.033354685 0.026463879 0.028737396 5.06751e-39
-0.032324258 0.026463769 0.02923739 5.06751e-39
-0.035892762 0.028975658 0.028237402 6.911787e-39
-0.033326652 0.028969752 0.02923739 6.4497256e-39
-0.035863101 0.031982321 0.028737396 6.1745821e-39
-0.033326652 0.031976931 0.02923739 6.0816634e-39
-0.036170237 0.034090538 0.028637398 5.5284896e-39
-0.033326652 0.033480521 0.02923739 6.0809403e-39
-0.036114112 0.036747344 0.028737396 5.7125151e-39
-0.033326652 0.036487699 0.02923739 6.1731331e-39
-0.03658371 0.03810795 0.0284374 5.8039891e-39
-0.038402803 0.041525878 0.028237402 5.8954672e-39
-0.03635468 0.041006938 0.02890406 6.3568055e-39
-0.040410839 0.043533914 0.028237402 6.1713381e-39
-0.038402803 0.043031905 0.028237402 6.1720569e-39
-0.036600068 0.042759616 0.028987393 6.7259496e-39
-0.040745512 0.046211291 0.028237402 9.5840225e-39
-0.03837071 0.046026789 0.028737396 1.0508498e-38
-0.03700209 0.045843367 0.02923739 1.0416664e-38
-0.044426911 0.049558021 0.028237402 7.9244998e-39
-0.041380867 0.048534941 0.028737396 8.2947242e-39
-0.038338616 0.047514021 0.02923739 1.0417022e-38
0.01278343 0.049518812 0.02923739 9.5829421e-39
-0.045430928 0.051566057 0.028237402 8.6649529e-39
-0.044389941 0.051042818 0.028737396 7.8333887e-39
-0.042014059 0.050855335 0.02923739 8.6642256e-39
0.01127984 0.051022399 0.02923739 9.4914653e-39
-0.045430928 0.053574093 0.028237402 9.7720179e-39
-0.044352975 0.053528383 0.02923739 8.2954515e-39
-0.042348187 0.05252599 0.02923739 8.0199352e-39
0.0082779322 0.053552054 0.028737396 1.050598e-38
-0.044352975 0.055533171 0.02923739 9.5869092e-39
-0.00075091573 0.056059659 0.028737396 1.0877648e-38
0.0017579012 0.055582132 0.028237402 1.0508147e-38
0.0027619186 0.055582132 0.028237402 1.0692538e-38
-0.0052596447 0.059542738 0.02923739 9.9556917e-39
-0.0092692161 0.061547525 0.02923739 8.1088938e-39
-0.013278789 0.063552313 0.02923739 1.4292483e-38
-0.0403434 0.0655571 0.02923739 1.0419185e-38
-0.038338613 0.068564273 0.02923739 1.0877645e-38
-0.037336219 0.069566667 0.02923739 1.0785804e-38
-0.028664798 0.069256447 0.02890406 6.5375968e-39
-0.026811097 0.068564281 0.02923739 6.9053004e-39
-0.023803916 0.068564281 0.02923739 6.3532042e-39
-0.021315407 0.068599321 0.028737396 6.2613701e-39
-0.019293148 0.067561887 0.02923739 7.0900503e-39
-0.035863101 0.071106926 0.028737396 9.123766e-39
-0.033326648 0.071571454 0.02923739 6.8149124e-39
-0.031823058 0.071571454 0.02923739 6.4461271e-39
-0.035892759 0.072650425 0.028237402 1.0507778e-38
-0.033382714 0.072650425 0.028237402 6.907108e-39
-0.032378696 0.072650425 0.028237402 6.6305183e-39
-0.019193182 0.013490485 0.032237411 8.5723901e-39
-0.022185739 0.01748056 0.032237411 4.6086969e-39
-0.026265206 0.019456545 0.030237377 4.607978e-39
-0.023682017 0.018976839 0.032237411 4.33211e-39
-0.028767128 0.022458849 0.030237377 4.3313911e-39
-0.02672049 0.021463549 0.031237409 4.3306709e-39
-0.024180777 0.021470638 0.032237411 4.6998107e-39
-0.031269047 0.024460386 0.030237377 4.1469999e-39
-0.028743155 0.02396111 0.0307374 4.3303121e-39
-0.026686154 0.023963679 0.031987414 5.16007e-39
-0.031269047 0.026461923 0.030237377 5.06751e-39
-0.028718371 0.02695965 0.031237423 6.0816634e-39
-0.026674576 0.026956994 0.032237411 6.5430002e-39
-0.031769432 0.028963845 0.030237377 6.3575286e-39
-0.028718371 0.028957937 0.031237423 6.2656945e-39
-0.027173335 0.028952032 0.032237411 6.2656945e-39
-0.031756226 0.031963252 0.030487388 6.5422814e-39
-0.028694399 0.031949978 0.031737417 6.35753e-39
-0.027173335 0.031944588 0.032237411 6.1731387e-39
-0.03174302 0.033460692 0.0307374 6.5422786e-39
-0.028694399 0.033447474 0.031737417 6.0802214e-39
-0.027173335 0.033440866 0.032237411 5.8954728e-39
-0.033270583 0.036469609 0.030237377 5.9887419e-39
-0.03174302 0.036460564 0.0307374 7.2794807e-39
-0.028694399 0.036442474 0.031737417 6.9110653e-39
-0.033270583 0.038471147 0.030237377 6.1731331e-39
-0.03174302 0.038460478 0.0307374 7.1876466e-39
-0.028669614 0.038428463 0.032237411 8.0181345e-39
-0.033270583 0.041473452 0.030237377 7.4645992e-39
-0.031733949 0.041455705 0.030904075 9.2184742e-39
-0.028918993 0.04117164 0.032237411 8.6663864e-39
-0.035772502 0.044475757 0.030237377 7.5557186e-39
-0.033270583 0.044475757 0.030237377 1.032555e-38
-0.031715803 0.044444665 0.031237423 1.0049681e-38
-0.029168371 0.044413581 0.032237411 1.097128e-38
-0.035929412 0.04680489 0.030404052 1.0233352e-38
-0.033214517 0.046442956 0.031237423 9.4961499e-39
-0.031783696 0.046222523 0.031837415 1.0418106e-38
-0.029168371 0.045411099 0.032237411 1.1247867e-38
0.011729913 0.047406137 0.032237411 8.9375727e-39
0.01275232 0.046454947 0.030904075 9.767332e-39
-0.038274426 0.049479596 0.030237377 8.2025286e-39
-0.036232803 0.049453456 0.030904075 8.4805574e-39
-0.033158448 0.049401175 0.032237411 6.7302838e-39
-0.03216093 0.049401175 0.032237411 9.0351745e-39
0.011239675 0.049420785 0.031737417 9.5833022e-39
-0.04060955 0.051147547 0.030237377 8.3869198e-39
-0.038274426 0.05098075 0.030237377 6.6348413e-39
-0.036192179 0.050925221 0.031570751 7.7426322e-39
-0.033158448 0.050897453 0.032237411 1.0694334e-38
0.0067423172 0.051396213 0.032237411 1.115207e-38
0.008408905 0.051077861 0.031904083 1.0321229e-38
0.010747811 0.050439533 0.031237423 9.3996298e-39
-0.041063089 0.054073662 0.030437386 6.7266796e-39
-0.038210236 0.053936534 0.031237423 6.8188725e-39
-0.036171861 0.053905517 0.031904083 7.2820114e-39
-0.00074030308 0.054412439 0.031737417 1.0600332e-38
0.0017555167 0.05443611 0.031237423 9.4929129e-39
0.0037534011 0.053929459 0.031404067 1.0876563e-38
0.0067556947 0.053960204 0.0307374 1.0968397e-38
0.0077503794 0.053436965 0.031237423 9.6769398e-39
-0.044279035 0.056484975 0.030237377 1.0324474e-38
-0.041219447 0.055942979 0.031070748 6.6344854e-39
-0.038210236 0.05593482 0.031237423 6.0813074e-39
-0.036151007 0.05588505 0.032237411 7.2827275e-39
-0.0042303931 0.056383811 0.032237411 1.235098e-38
-0.0019093702 0.055785161 0.030904055 1.124607e-38
-0.044279031 0.058486506 0.030237377 1.097092e-38
-0.041207664 0.058932249 0.031237423 7.9266676e-39
-0.038146041 0.058877606 0.032237411 7.6507981e-39
-0.036151003 0.058877606 0.032237411 7.5589626e-39
-0.033158444 0.059376366 0.032237411 7.6500821e-39
-0.0052279122 0.058378845 0.032237411 9.8627772e-39
-0.0042482987 0.058486514 0.030237377 1.2444974e-38
-0.041021973 0.061241698 0.031037414 9.1262912e-39
-0.038178138 0.061401568 0.031737417 8.5738334e-39
-0.036151003 0.061371401 0.032237411 9.4035955e-39
-0.033158444 0.061371401 0.032237411 9.9556903e-39
-0.031828418 0.061703909 0.032237411 1.0232637e-38
-0.029168371 0.062368922 0.032237411 1.0140083e-38
-0.010234208 0.062429257 0.031237423 8.7549835e-39
-0.0092350645 0.060430966 0.031237423 1.133718e-38
-0.040759481 0.063975245 0.030487388 1.0049687e-38
-0.038210232 0.063927963 0.031237423 7.9266662e-39
-0.036202058 0.063917644 0.031404089 9.2181211e-39
-0.03318648 0.063896991 0.031737417 9.9556889e-39
-0.031675778 0.063881099 0.031987414 8.2036118e-39
-0.028669611 0.0638652 0.032237411 8.9415384e-39
-0.026674572 0.0638652 0.032237411 9.0333753e-39
-0.023682017 0.064363964 0.032237411 6.9107052e-39
-0.021188218 0.064363964 0.032237411 6.9099835e-39
-0.01919318 0.064363964 0.032237411 6.7252335e-39
-0.014230782 0.063428402 0.031237423 1.4292483e-38
-0.038274422 0.066492662 0.030237377 9.3092433e-39
-0.036222372 0.066437237 0.031070748 7.9248655e-39
-0.033214513 0.06642583 0.031237423 8.7528171e-39
-0.031715795 0.06642583 0.031237423 7.737226e-39
-0.028730355 0.066442952 0.030987412 8.1067274e-39
-0.026742835 0.066460058 0.0307374 7.6439486e-39
-0.023763282 0.067493431 0.030237377 6.1688129e-39
-0.02126136 0.067493431 0.030237377 6.3535657e-39
-0.036072731 0.068894498 0.030237377 7.8323097e-39
-0.033270579 0.068994582 0.030237377 7.0000197e-39
-0.031769425 0.068994582 0.030237377 6.6305183e-39
-0.029267509 0.068494201 0.030237377 6.261733e-39
-0.015149456 0.011540493 0.034237385 9.4017962e-39
-0.018474797 0.014185998 0.033904057 7.09726e-39
-0.020155754 0.016497442 0.033237398 4.8838446e-39
-0.018629402 0.015517574 0.034237385 4.9767605e-39
-0.023143437 0.019485125 0.033237398 3.9633275e-39
-0.021134175 0.018992348 0.033737391 4.607255e-39
-0.018877968 0.018251818 0.034237385 5.1593483e-39
-0.023143437 0.021476915 0.033237398 5.8057981e-39
-0.021115076 0.021980327 0.034237385 8.0156094e-39
-0.023641385 0.023966651 0.033237398 6.8185053e-39
-0.021115076 0.023968868 0.034237385 6.3575272e-39
-0.023621475 0.026953006 0.033737391 7.002898e-39
-0.022109346 0.026951678 0.034237385 6.2653301e-39
-0.026131123 0.028946124 0.033237398 6.4490067e-39
-0.023621473 0.028445631 0.033737391 6.4493641e-39
-0.022109346 0.028443083 0.034237385 6.1731331e-39
-0.026131123 0.031933807 0.033237398 6.356451e-39
-0.023607656 0.031427551 0.034070719 6.3564496e-39
-0.026131123 0.033427648 0.033237398 5.8954728e-39
-0.023600752 0.033414431 0.034237385 6.2642526e-39
-0.026621623 0.036412045 0.033404063 7.5560774e-39
-0.024097884 0.036397241 0.034237385 7.0021791e-39
0.0067244805 0.035402972 0.034237385 1.3183978e-38
0.0077187503 0.036397245 0.034237385 1.2077273e-38
-0.026606724 0.038893588 0.033737391 8.2950858e-39
-0.024097886 0.039380051 0.034237385 6.5422884e-39
0.0087130219 0.039380051 0.034237385 1.1985075e-38
-0.028122909 0.041892752 0.033237398 9.220642e-39
-0.026606724 0.041381698 0.033737391 8.5741936e-39
0.0084644537 0.041617159 0.034237385 1.1062038e-38
0.010701561 0.041865729 0.034237385 1.0047166e-38
-0.028122909 0.04438249 0.033237398 1.1248946e-38
-0.027080694 0.044351399 0.034237385 1.143334e-38
0.0082158865 0.044351403 0.034237385 9.6787419e-39
0.011207216 0.044366948 0.033737391 9.5836694e-39
-0.028454876 0.046042312 0.033237398 1.1340062e-38
-0.027080694 0.045842804 0.034237385 1.0880163e-38
0.0047359415 0.046339944 0.034237385 8.6642312e-39
0.0067244815 0.045842808 0.034237385 9.6765853e-39
0.0082158865 0.045842804 0.034237385 9.3070825e-39
0.01121107 0.045868158 0.033487394 9.9531652e-39
-0.031110592 0.048864014 0.033237398 1.0510302e-38
-0.028596886 0.048844818 0.033737391 9.31176e-39
-0.027080694 0.048328482 0.034237385 9.4039599e-39
0.0039405255 0.04892505 0.034237385 9.5843882e-39
0.0067244815 0.048825618 0.034237385 9.2152414e-39
0.0082246056 0.048854619 0.033487394 9.4918283e-39
0.010716977 0.04836607 0.033237398 9.4918255e-39
-0.031608541 0.050855804 0.033237398 9.8645737e-39
-0.028572101 0.050814152 0.034237385 9.2188455e-39
-0.0012296772 0.051311295 0.034237385 9.1234101e-39
0.0017531323 0.050814159 0.034237385 9.7698571e-39
0.0037446388 0.050842196 0.033570725 9.8613325e-39
0.0067333994 0.05035786 0.033237398 8.9386545e-39
0.0077292942 0.05035786 0.033237398 9.0308473e-39
-0.033102382 0.053843491 0.033237398 6.2689483e-39
-0.031608541 0.053843491 0.033237398 6.7292062e-39
-0.028572101 0.053796966 0.034237385 8.6649445e-39
-0.004212487 0.053796969 0.034237385 1.0138282e-38
-0.0014813041 0.053583089 0.033487394 1.0230834e-38
0.0017539272 0.053345546 0.033237398 8.9397391e-39
-0.033102378 0.056333225 0.033237398 7.4667642e-39
-0.031608537 0.056333225 0.033237398 7.6504352e-39
-0.028572101 0.05628264 0.034237385 8.1114148e-39
-0.02674927 0.05661406 0.034237385 7.8348265e-39
-0.005541706 0.056631465 0.033904057 1.1244993e-38
-0.0042214398 0.055337332 0.033237398 1.0507068e-38
-0.033102378 0.058325015 0.033237398 7.0050644e-39
-0.031608537 0.05882296 0.033237398 9.2174022e-39
-0.028608872 0.058809508 0.033487394 8.6638739e-39
-0.02658356 0.058768317 0.034237385 8.2032531e-39
-0.02376646 0.058934029 0.034237385 7.2805723e-39
-0.022109345 0.05926545 0.034237385 6.634484e-39
-0.01067524 0.05926545 0.034237385 1.1706328e-38
-0.0091838352 0.058768317 0.034237385 1.0783649e-38
-0.0068725497 0.058639038 0.033570725 9.7695026e-39
-0.031110588 0.060316801 0.033237398 1.0876926e-38
-0.028454876 0.060980737 0.033237398 9.9549742e-39
-0.026629068 0.061312698 0.033237398 9.4021592e-39
-0.023621066 0.061284158 0.033737391 7.1880179e-39
-0.021124626 0.061269075 0.033987388 8.6635039e-39
-0.0186294 0.061253991 0.034237385 1.0970197e-38
-0.015149455 0.06224826 0.034237385 1.5396673e-38
-0.01365805 0.061253991 0.034237385 1.4659468e-38
-0.010853961 0.060961708 0.033570725 1.1706687e-38
-0.023641381 0.063304491 0.033237398 7.3716833e-39
-0.021151647 0.063304491 0.033237398 8.3851136e-39
-0.018485362 0.063615263 0.033570725 1.0229032e-38
-0.017137995 0.063242532 0.034237385 1.1614491e-38
-0.023641381 0.066292174 0.033237398 6.1699003e-39
-0.021151647 0.066292174 0.033237398 6.3546475e-39
-0.018661909 0.066292174 0.033237398 6.5376038e-39
-0.010159408 0.0095777288 0.035237432 1.1799956e-38
-0.0091667622 0.0095777288 0.035237432 9.6783831e-39
-0.0071814717 0.0095777288 0.035237432 5.8061667e-39
-0.013137343 0.010570372 0.035237432 1.0785804e-38
-0.010655731 0.010570372 0.035237432 1.0048238e-38
-0.0091667622 0.010570372 0.035237432 5.1607973e-39
-0.0071814717 0.010570372 0.035237432 5.7139711e-39
-0.01571822 0.013746838 0.035237432 6.8195955e-39
-0.013633666 0.01354831 0.035237432 7.3724078e-39
-0.01065573 0.013548308 0.035237432 8.5673482e-39
-0.00916107 0.013554193 0.035570759 8.2896795e-39
-0.0063111791 0.013674596 0.03536243 7.4613608e-39
-0.015618956 0.015533599 0.035237432 6.0827452e-39
-0.013633667 0.015533599 0.035237432 9.0319263e-39
-0.01064638 0.015541611 0.035737425 8.93397e-39
-0.0091496864 0.015549624 0.036237419 8.9310903e-39
-0.0061766244 0.015549625 0.036237419 7.9194607e-39
-0.0042035361 0.0155336 0.035237432 1.1246061e-38
-0.018100569 0.019007858 0.035237432 6.3578901e-39
-0.015618955 0.018511536 0.035237432 7.1887326e-39
-0.013621607 0.01851657 0.035737425 8.5723873e-39
-0.010636215 0.018522687 0.036237419 1.2813748e-38
-0.0091496855 0.018522687 0.036237419 1.262792e-38
-0.0061766244 0.018522687 0.036237419 1.1337904e-38
-0.0041975672 0.018518427 0.035904091 1.0509939e-38
-0.0018873637 0.0191733 0.035237432 1.0508503e-38
-0.018596891 0.021985793 0.035237432 7.0014589e-39
-0.015612249 0.021986958 0.035487428 5.8954742e-39
-0.013609279 0.021991257 0.036237419 8.1099756e-39
-0.010636216 0.02199126 0.036237419 1.3461644e-38
-0.0091496855 0.02199126 0.036237419 1.2538611e-38
-0.006176624 0.021991258 0.036237419 1.0784373e-38
-0.0041945823 0.02199126 0.036237419 1.0691459e-38
-0.0014241291 0.022085059 0.035237432 1.1243912e-38
-0.018596891 0.023971085 0.035237432 5.9883873e-39
-0.015605543 0.023972193 0.035737425 5.8954742e-39
-0.013609279 0.023973301 0.036237419 7.8315937e-39
-0.010636216 0.023973301 0.036237419 1.4660541e-38
-0.0091496855 0.023973301 0.036237419 1.4291402e-38
-0.006176624 0.023973301 0.036237419 1.2537531e-38
-0.0041945823 0.023973301 0.036237419 1.2905952e-38
-0.0012255999 0.023971086 0.035237432 1.2444974e-38
0.0017523359 0.024467409 0.035237432 1.1985435e-38
-0.02008586 0.02694902 0.035237432 6.0809375e-39
-0.018596891 0.02694902 0.035237432 5.8958288e-39
-0.015591319 0.026946362 0.036237419 5.5266903e-39
-0.013609278 0.026946362 0.036237419 7.6482772e-39
-0.010636216 0.026946362 0.036237419 1.2631164e-38
-0.0091496855 0.026946364 0.036237419 1.2632247e-38
-0.006176624 0.026946364 0.036237419 1.300175e-38
-0.0041945823 0.026946364 0.036237419 1.3185418e-38
-0.0012255998 0.026949018 0.035237432 1.1524815e-38
0.001752336 0.026949022 0.035237432 1.3092142e-38
0.0027449813 0.027445344 0.035237432 1.290847e-38
-0.02008586 0.028437989 0.035237432 6.1731331e-39
-0.018581044 0.028435443 0.035737425 6.0798599e-39
-0.01559132 0.028432894 0.036237419 5.1579078e-39
-0.013609279 0.028432894 0.036237419 1.1613047e-38
-0.010636216 0.028432894 0.036237419 1.2630445e-38
-0.0091496855 0.028432894 0.036237419 1.3092864e-38
-0.006176624 0.028432896 0.036237419 1.337089e-38
-0.0041945823 0.028432894 0.036237419 1.3462726e-38
-0.0012255997 0.028437989 0.035237432 1.253897e-38
0.0017523362 0.028437989 0.035237432 1.3092861e-38
0.0027449816 0.028437989 0.035237432 1.3092861e-38
-0.021078505 0.031415924 0.035237432 6.1720541e-39
-0.018575491 0.031409007 0.035904091 5.8032716e-39
-0.01559132 0.031405956 0.036237419 6.725595e-39
-0.013601149 0.031402092 0.036570746 1.1522293e-38
-0.010629711 0.031402092 0.036570746 1.1340069e-38
-0.0091496855 0.031405956 0.036237419 1.1709214e-38
-0.006176624 0.031405956 0.036237419 1.3555283e-38
-0.0041945819 0.031405956 0.036237419 1.383223e-38
-0.0012232448 0.031411313 0.03568187 1.2723724e-38
0.0017523362 0.031415924 0.035237432 1.2538969e-38
0.0031420398 0.031614456 0.035237432 1.3185057e-38
-0.021078505 0.033401214 0.035237432 6.2642497e-39
-0.018564383 0.033387996 0.036237419 6.1720541e-39
-0.015577907 0.033876084 0.036737412 5.9883859e-39
-0.01358489 0.034364175 0.037237406 1.1429018e-38
-0.010616702 0.034364175 0.037237406 1.2446414e-38
-0.0091496846 0.033387996 0.036237419 1.2261668e-38
-0.0061766231 0.033387996 0.036237419 1.3461647e-38
-0.0041945819 0.033387996 0.036237419 1.3647117e-38
-0.0012215202 0.033387996 0.036237419 1.4292489e-38
0.0017523365 0.033401217 0.035237432 1.3828994e-38
0.0037376273 0.033401217 0.035237432 1.3368371e-38
-0.023063796 0.036379147 0.035237432 6.6330351e-39
-0.021054665 0.036366817 0.035904091 6.0798585e-39
-0.018559098 0.036357772 0.036404084 6.2642497e-39
-0.015568425 0.036345713 0.03707074 7.1854886e-39
-0.01358489 0.036342964 0.037237406 1.0321949e-38
-0.010616702 0.036342967 0.037237406 9.8613381e-39
-0.0091326078 0.036342967 0.037237406 9.953891e-39
-0.0061735506 0.036356863 0.03645964 1.1892882e-38
-0.0041945819 0.036361057 0.036237419 1.3922625e-38
-0.00122152 0.036361061 0.036237419 1.2908476e-38
0.0017523366 0.036379151 0.035237432 1.3644601e-38
0.0037376273 0.036379151 0.035237432 1.300031e-38
0.0067155631 0.036875475 0.035237432 1.2907754e-38
0.0077029369 0.036370918 0.035737425 1.2999231e-38
-0.023063796 0.039357085 0.035237432 6.3582503e-39
-0.021041933 0.039334122 0.036237419 6.1731345e-39
-0.018531872 0.039311156 0.037237406 6.1724143e-39
-0.015563684 0.039311156 0.037237406 1.0227584e-38
-0.01358489 0.039311156 0.037237406 1.0136472e-38
-0.010616702 0.039311156 0.037237406 9.3070741e-39
-0.0091326078 0.039311156 0.037237406 9.7698543e-39
-0.0061679468 0.039318811 0.036904078 1.060214e-38
-0.0041945814 0.039334122 0.036237419 1.3737152e-38
-0.0012215198 0.039334122 0.036237419 1.3184697e-38
0.0017515421 0.039334122 0.036237419 1.2538248e-38
0.0037376273 0.039357089 0.035237432 1.2077277e-38
0.0067155631 0.039357089 0.035237432 1.3552407e-38
0.0077082082 0.039357089 0.035237432 1.2261664e-38
-0.023553481 0.04133774 0.035404097 7.4656838e-39
-0.021033196 0.040814098 0.036487415 6.3578873e-39
-0.01853187 0.040795252 0.037237406 6.3564454e-39
-0.015728584 0.040630352 0.037237406 1.0319421e-38
-0.01341999 0.040630352 0.037237406 9.8598849e-39
-0.010616702 0.040795248 0.037237406 8.9386517e-39
-0.0091326078 0.040795252 0.037237406 1.0968396e-38
-0.0061679468 0.040803716 0.036904078 1.0878726e-38
-0.0041945814 0.040820651 0.036237419 1.226202e-38
-0.0010976421 0.041192282 0.036237419 1.226202e-38
0.0017515422 0.041316163 0.036237419 1.272264e-38
0.0037376275 0.041342374 0.035237432 1.2261664e-38
0.0067155636 0.041342378 0.035237432 1.1246792e-38
0.0077082082 0.040846057 0.035237432 1.0232999e-38
-0.026041731 0.044320311 0.035237432 1.1156753e-38
-0.023540206 0.044304766 0.035737425 9.9574882e-39
-0.021014908 0.043771207 0.036987409 7.0954566e-39
-0.01853187 0.043763436 0.037237406 6.7245118e-39
-0.010451802 0.043598536 0.037237406 1.0691089e-38
-0.0091326078 0.043763436 0.037237406 1.0508498e-38
-0.0061661839 0.043768618 0.03707074 1.0416667e-38
-0.004190105 0.043778982 0.036737412 1.0232276e-38
-0.0014678487 0.044034101 0.036487415 9.9553288e-39
0.0017523371 0.044320315 0.035237432 8.5727572e-39
0.0037376278 0.044320315 0.035237432 1.0877648e-38
0.0067155631 0.044320315 0.035237432 1.0877645e-38
-0.026041731 0.04580928 0.035237432 1.0972362e-38
-0.023529846 0.045783933 0.035987422 7.2838163e-39
-0.02100536 0.045742229 0.037237406 6.8188711e-39
-0.019026568 0.045742229 0.037237406 7.8305063e-39
-0.010122004 0.045742229 0.037237406 1.1431173e-38
-0.0091326078 0.045742229 0.037237406 1.1155311e-38
-0.0061679464 0.045753404 0.036904078 9.9556889e-39
-0.0041945809 0.045775756 0.036237419 9.5869064e-39
-0.0012219285 0.045781478 0.036070753 9.77022e-39
0.0017523372 0.045809284 0.035237432 9.9549728e-39
0.0035390989 0.045710016 0.035237432 9.77022e-39
-0.026372613 0.048952658 0.035237432 8.9429817e-39
-0.023519486 0.048748817 0.036237419 6.9143121e-39
-0.02100536 0.048710421 0.037237406 6.5419254e-39
-0.01853187 0.048710417 0.037237406 9.6747748e-39
-0.01605838 0.049205117 0.037237406 1.1244266e-38
-0.013090191 0.049205117 0.037237406 9.3996326e-39
-0.010616701 0.048710421 0.037237406 1.180032e-38
-0.0091326069 0.048710421 0.037237406 1.1708846e-38
-0.006174318 0.048742551 0.036404084 9.9542512e-39
-0.0041945809 0.048748821 0.036237419 9.7694998e-39
-0.0012246479 0.048780959 0.035404097 9.7694998e-39
0.0017523374 0.048787218 0.035237432 9.5851099e-39
0.0027449825 0.048290893 0.035237432 9.3085244e-39
-0.026538055 0.05077251 0.035237432 8.481642e-39
-0.023509528 0.050967593 0.036487415 6.8210361e-39
-0.021014908 0.051194116 0.036987409 7.3713246e-39
-0.01853187 0.051183909 0.037237406 1.0781485e-38
-0.015563681 0.051183909 0.037237406 1.0599256e-38
-0.013584889 0.051183913 0.037237406 1.1336461e-38
-0.010781601 0.050854117 0.037237406 1.1892157e-38
-0.0091326069 0.051183913 0.037237406 1.290739e-38
-0.006174047 0.051053584 0.036404084 1.0508505e-38
-0.0042035342 0.05077251 0.035237432 1.0322674e-38
-0.0012255985 0.050276186 0.035237432 9.3085216e-39
-0.026538055 0.053750444 0.035237432 7.7426364e-39
-0.023529846 0.053715754 0.035987422 6.266419e-39
-0.021041932 0.053703919 0.036237419 7.555713e-39
-0.018548125 0.053681068 0.036737412 1.1982192e-38
-0.015563682 0.053657398 0.037237406 9.861694e-39
-0.013590783 0.053669237 0.036987409 1.3090336e-38
-0.010636214 0.053703923 0.036237419 1.0508861e-38
-0.0091496836 0.053703923 0.036237419 6.1738758e-39
-0.0061865193 0.053742826 0.035404097 9.9535337e-39
-0.026041731 0.055239413 0.035237432 8.6653046e-39
-0.023560118 0.056232058 0.035237432 7.1887368e-39
-0.021051481 0.056194525 0.035987422 8.1092526e-39
-0.018564381 0.056181472 0.036237419 1.0506703e-38
-0.015591318 0.056181472 0.036237419 1.1522297e-38
-0.013609277 0.056181472 0.036237419 1.0600344e-38
-0.010640889 0.056194525 0.035987422 1.1614853e-38
-0.0091667594 0.056232061 0.035237432 1.0690739e-38
-0.0068505872 0.055901181 0.035237432 1.133683e-38
-0.023063794 0.058217347 0.035237432 7.2805723e-39
-0.020747622 0.058548231 0.035237432 9.0319277e-39
-0.018596891 0.058713675 0.035237432 1.1891436e-38
-0.015605135 0.058686756 0.035737425 1.0970204e-38
-0.013627363 0.058700211 0.035487428 1.0969845e-38
-0.010655727 0.058217347 0.035237432 1.1246428e-38
-0.015784396 0.060864408 0.035237432 1.4013378e-38
-0.015042159 0.041263733 0.038237393 1.0043555e-38
-0.01405439 0.041263737 0.038237393 9.9520805e-39
-0.015536046 0.043733161 0.038237393 1.0690004e-38
-0.013560504 0.043733161 0.038237393 1.0137195e-38
-0.011091075 0.044227049 0.038237393 1.0598893e-38
-0.018005475 0.045708705 0.038237393 1.0504535e-38
-0.015536046 0.045708708 0.038237393 1.1336457e-38
-0.013560504 0.045708708 0.038237393 1.0414502e-38
-0.011091075 0.045708708 0.038237393 1.152265e-38
-0.015371417 0.048507392 0.038237393 1.0690371e-38
-0.013725132 0.048507392 0.038237393 9.3999928e-39
-0.010103303 0.05212922 0.038237393 1.2814832e-38
-0.037910767 -0.01520851 0.53423738 6.4788194e-40
-0.037189003 -0.015257032 0.53423738 5.5568911e-40
-0.038049821 -0.014246106 0.53414208 6.4824207e-40
-0.037255719 -0.014535265 0.53423738 4.6421094e-40
-0.038034983 -0.014220588 0.53523737 6.4788194e-40
-0.036135986 -0.010431953 0.54123735 8.311956e-40
-0.035889592 -0.0095929755 0.5422374 9.2338983e-40
-0.035214379 -0.0082448376 0.54323739 1.0155855e-39
-0.034796041 -0.0079519991 0.54323739 1.1999767e-39
-0.034943052 -0.0074632112 0.54423738 1.6606003e-39
-0.037049361 -0.0082903635 0.54523736 1.0166645e-39
-0.036588758 -0.0074701477 0.54623741 1.1996222e-39
-0.034478664 -0.0065947962 0.54523736 6.4680294e-40
