ply
format ascii 1.0
comment PCL generated
element vertex 1030
property float x
property float y
property float z
property uchar red
property uchar green
property uchar blue
element camera 0
property float view_px
property float view_py
property float view_pz
property float x_axisx
property float x_axisy
property float x_axisz
property float y_axisx
property float y_axisy
property float y_axisz
property float z_axisx
property float z_axisy
property float z_axisz
property float focal
property float scalex
property float scaley
property float centerx
property float centery
property int viewportx
property int viewporty
property float k1
property float k2
end_header
0.051817179 -0.076850183 0.054056048 123 113 101
-0.032843482 -0.017854718 0.053056061 68 67 60
-0.030832227 -0.017998375 0.053056061 71 72 63
-0.029280689 -0.017912179 0.053056061 75 73 67
-0.033418126 -0.015843462 0.053056061 62 60 53
-0.030832227 -0.015843458 0.053056061 71 69 61
-0.029108295 -0.015843458 0.053056061 86 83 74
-0.026522396 -0.015843458 0.053056061 85 81 74
-0.033418126 -0.014550515 0.053056061 64 62 55
-0.030832227 -0.014550511 0.053056061 70 68 60
-0.029108295 -0.014550511 0.053056061 86 82 74
-0.026091414 -0.014550511 0.053056061 92 87 79
-0.024798464 -0.014119528 0.053056061 97 93 86
-0.033418126 -0.011533632 0.053056061 61 62 54
-0.030813297 -0.01151108 0.053389389 66 64 56
-0.029060887 -0.011472234 0.053944938 76 72 65
-0.026067356 -0.011499534 0.053556055 87 83 74
-0.023936497 -0.011533628 0.053056061 91 86 81
-0.021925243 -0.010958984 0.053056061 87 83 78
-0.033590518 -0.0091201272 0.053056061 51 51 44
-0.031349 -0.0085965581 0.054056048 58 57 49
-0.029054759 -0.0088833366 0.054056048 74 70 62
-0.026043568 -0.0088833366 0.054056048 85 81 73
-0.023892717 -0.0088833366 0.054056048 87 82 78
-0.021343848 -0.0089372685 0.053222727 89 84 79
-0.018764701 -0.0080857649 0.053056061 80 73 67
-0.033849109 -0.0067928173 0.053056061 43 44 40
-0.03163578 -0.0067324881 0.054056048 52 51 47
-0.029226828 -0.0068185204 0.054056048 68 65 59
-0.026043568 -0.0071626566 0.054056048 84 81 74
-0.023892719 -0.0067324862 0.054056048 85 81 74
-0.021317912 -0.0067426763 0.053889383 86 81 75
-0.018333718 -0.0067928135 0.053056061 91 83 77
-0.017040769 -0.006361831 0.053056061 93 86 80
-0.036004022 -0.0033449531 0.053056061 32 36 31
-0.033838827 -0.0037671013 0.053222727 39 41 37
-0.03163578 -0.0037213012 0.054056048 48 48 44
-0.0299151 -0.0045816414 0.054056048 69 66 61
-0.021096615 -0.0043665562 0.054056048 83 79 72
-0.018305907 -0.003730678 0.053889383 86 80 74
-0.01616396 -0.0037491599 0.053556055 87 80 74
-0.013880227 -0.0036322735 0.053056061 89 82 76
-0.036004022 -0.0011900365 0.053056061 26 33 30
-0.033818271 -0.0011651586 0.053556055 32 35 33
-0.031635776 -0.0011402806 0.054056048 41 42 39
-0.013405954 -0.00098876399 0.053656053 84 77 71
-0.010719684 -0.00090271235 0.053056061 80 74 71
-0.036435004 0.00096487999 0.053056061 24 32 29
-0.033818271 0.0009877244 0.053556055 26 31 29
-0.031635776 0.0010105688 0.054056048 32 34 30
-0.013138471 0.00058040023 0.054056048 85 78 72
-0.010566331 0.00098772626 0.053556055 86 80 76
-0.0092830742 0.00096488185 0.053056061 86 81 77
-0.033664398 0.0041048997 0.053056061 32 37 35
-0.031463709 0.0038496903 0.054056048 35 37 35
-0.0299151 0.0044519277 0.054056048 38 38 34
-0.010127282 0.003161421 0.054056048 93 88 84
-0.0084108943 0.0040081567 0.053722721 88 83 79
-0.0064098523 0.0045564082 0.053056061 81 76 72
-0.03298714 0.0065676598 0.053056061 29 33 32
-0.030775439 0.0066027781 0.054056048 35 38 37
-0.0299151 0.0066027781 0.054056048 40 42 40
-0.0081198215 0.0063160001 0.054056048 93 87 84
-0.0062633781 0.0065760347 0.053306058 83 77 73
-0.0049732421 0.0074296277 0.053056061 73 63 63
-0.03298714 0.0087225763 0.053056061 28 34 34
-0.030775439 0.0087536275 0.054056048 35 38 37
-0.0299151 0.0087536275 0.054056048 37 40 39
-0.0061155707 0.0085996175 0.053722721 86 80 78
-0.0043985979 0.0088662393 0.053056061 82 76 72
-0.032556158 0.011308474 0.053056061 28 35 34
-0.030775437 0.011334646 0.054056048 26 33 31
-0.029915098 0.011334646 0.054056048 29 35 33
-0.004106089 0.011327902 0.053806052 77 72 67
-0.0015253993 0.011312974 0.053222727 75 69 62
-0.032556158 0.012601423 0.053056061 26 34 33
-0.030832225 0.013032407 0.053056061 20 28 26
-0.029915098 0.013055326 0.054056048 23 29 27
-0.0032445621 0.012625158 0.054056048 76 71 67
-0.0013087647 0.01283431 0.053806052 77 73 65
0.001058829 0.013043461 0.053556055 83 76 69
-0.030832225 0.015618306 0.053056061 24 32 31
-0.029494122 0.016063916 0.053889383 25 30 30
-0.00066354271 0.015206178 0.054056048 80 75 73
0.0014873068 0.015206178 0.054056048 84 79 74
-0.028904429 0.018987056 0.053656053 30 36 37
0.0044984967 0.019507878 0.054056048 91 86 82
-0.028533651 0.02064644 0.053056061 36 40 41
-0.026473736 0.020798385 0.054056048 36 39 38
-0.028246328 0.022945017 0.053056061 31 39 38
-0.026270816 0.024024418 0.053806052 27 33 32
-0.028194418 0.026820764 0.054056048 30 41 40
-0.025916398 0.02696546 0.053722721 30 40 39
-0.026186958 0.028398052 0.054056048 29 40 40
0.020454761 0.036736477 0.053056061 74 69 65
0.019984614 0.038435355 0.054056048 84 79 75
0.021145873 0.038730487 0.053722721 75 71 67
0.022609677 0.038460411 0.053056061 69 66 61
-0.021762129 0.041030526 0.053556055 35 43 38
0.021705292 0.04101637 0.054056048 82 76 73
0.022609679 0.04104631 0.053056061 77 72 68
0.026006993 0.04789909 0.054056048 75 72 67
0.055258557 0.14855886 0.054056048 72 73 64
0.056189999 0.15216003 0.053389389 74 74 69
0.052677535 0.15286055 0.054056048 97 94 89
0.033641398 -0.080816329 0.055722754 134 131 126
0.03617724 -0.081052177 0.056256078 105 98 96
0.038762189 -0.081178412 0.056056082 64 55 58
0.040924866 -0.081229076 0.055806085 59 51 51
0.043961454 -0.08131323 0.055389423 86 80 76
0.046279322 -0.080378406 0.055056095 123 116 106
0.048282985 -0.080092162 0.055056095 124 114 102
0.033191942 -0.078178607 0.056056082 127 124 119
0.036190927 -0.079035699 0.056056082 99 92 90
0.038762193 -0.079035699 0.056056082 57 47 50
0.040904909 -0.079035699 0.056056082 58 50 49
0.043904718 -0.079035699 0.056056082 95 91 84
0.046521582 -0.078276671 0.055556089 116 108 99
0.048855465 -0.0780885 0.055056095 107 98 90
0.050859127 -0.077516019 0.055056095 123 115 103
0.033159345 -0.076796129 0.056556076 135 132 127
0.03617898 -0.076860838 0.056222748 102 96 95
0.038687248 -0.076699287 0.057056069 53 46 46
0.0408259 -0.076699287 0.057056069 64 61 58
0.043862369 -0.076796539 0.056556076 93 88 81
0.046475977 -0.076892972 0.056056082 111 103 94
0.048475847 -0.076750122 0.056056082 108 99 90
0.051288486 -0.076227948 0.055056095 116 107 96
0.052576553 -0.075798593 0.055056095 120 109 100
0.033159345 -0.073799171 0.056556076 133 130 126
0.036136076 -0.073747128 0.056833848 94 88 84
0.038687248 -0.073705174 0.057056069 60 56 56
0.040740352 -0.073876269 0.057056069 66 66 62
0.043820012 -0.074132912 0.057056069 89 85 79
0.046386402 -0.073705174 0.057056069 103 94 88
0.048572004 -0.073799707 0.056556076 111 100 92
0.051104248 -0.073721752 0.056056082 111 101 91
0.052576553 -0.074081168 0.055056095 110 99 90
0.033191126 -0.071321905 0.056056082 132 130 125
0.035907 -0.070711061 0.057056069 111 108 104
0.048952781 -0.071994253 0.057056069 100 89 80
0.050981969 -0.071485527 0.056722742 101 91 84
0.033174831 -0.06913463 0.056306079 126 126 120
0.035550561 -0.069142722 0.057056069 115 112 107
0.033147946 -0.066064082 0.056722742 117 117 113
0.035265408 -0.066433758 0.057056069 121 118 113
0.033126757 -0.063439645 0.057056069 110 110 106
-0.028142506 -0.0062428005 0.055056095 76 74 66
-0.025995724 -0.0062428005 0.055056095 82 79 71
0.0584752 -0.006183289 0.056056082 86 82 75
-0.028893881 -0.0035593263 0.055056095 65 64 57
-0.025995724 -0.0036666654 0.055056095 76 74 65
-0.023848942 -0.0036666654 0.055056095 87 84 74
-0.02144454 -0.0031514377 0.055056095 88 84 76
-0.029001221 -0.00066116825 0.055056095 53 53 48
-0.025995724 -0.00066116825 0.055056095 68 66 58
-0.02384894 -0.00066116825 0.055056095 79 75 66
-0.021272799 -0.00066116825 0.055056095 84 80 72
-0.0182673 -0.00066116825 0.055056095 83 79 72
-0.016120518 -0.00066116732 0.055056095 79 74 68
-0.014403091 -0.0010905229 0.055056095 80 76 69
-0.029001221 0.0010562595 0.055056095 42 43 39
-0.025960041 0.0010903222 0.055806085 78 76 67
-0.02380516 0.0011019474 0.056056082 77 73 64
-0.021233896 0.0011019474 0.056056082 81 77 68
-0.018242192 0.0010903222 0.055806085 83 79 72
-0.016105948 0.0010786979 0.055556089 81 76 72
-0.013752583 0.0012821583 0.055306092 84 78 74
-0.028755872 0.0039390833 0.055056095 39 38 34
-0.025947878 0.0041017532 0.056056082 60 58 50
-0.023805162 0.0041017532 0.056056082 67 63 55
-0.021216968 0.0041191676 0.056500521 76 72 62
-0.018211951 0.0041278754 0.056722742 88 84 77
-0.016076533 0.0041212104 0.056556076 90 85 81
-0.013522629 0.0040971306 0.055944972 93 88 84
-0.01062475 0.0042335009 0.055056095 94 89 85
-0.028558886 0.0068613542 0.055306092 43 43 43
-0.026106944 0.0069475458 0.055722754 49 46 43
-0.02380516 0.0066730138 0.056056082 61 57 52
-0.021194996 0.0067081321 0.057056069 69 65 58
-0.018200884 0.0067081321 0.057056069 84 80 73
-0.016062232 0.006708133 0.057056069 92 87 82
-0.013511483 0.0066847219 0.05638941 98 93 89
-0.01038338 0.0069475477 0.055722754 101 96 92
-0.0092508094 0.0074966121 0.055056095 105 100 96
-0.028571863 0.0087846806 0.055056095 39 41 40
-0.025881629 0.0085461857 0.055656087 50 46 45
-0.02379111 0.0083975391 0.05638941 60 56 52
-0.021301929 0.0083121201 0.057056069 69 65 60
-0.018200884 0.0079913232 0.057056069 82 78 71
-0.016062232 0.0079913242 0.057056069 89 85 80
-0.013499621 0.0079857428 0.056889404 97 93 88
-0.010602141 0.0085646557 0.056256078 99 92 88
-0.0083880629 0.008792242 0.055306092 105 97 94
-0.0066746688 0.0092140399 0.055056095 101 93 92
-0.028571861 0.01136082 0.055056095 33 36 35
-0.025960041 0.011380247 0.055806085 39 38 38
-0.023784082 0.01140008 0.056556076 48 48 43
-0.021366086 0.01132762 0.057056069 67 66 60
-0.012640389 0.010985436 0.057056069 94 89 85
-0.01035916 0.01127059 0.057056069 105 97 92
-0.008369524 0.01140008 0.056556076 104 96 93
-0.0062400931 0.011373502 0.055556089 88 83 79
-0.028571863 0.013078247 0.055056095 30 33 32
-0.025947876 0.01352971 0.056056082 36 37 37
-0.023784082 0.013540763 0.056556076 42 42 38
-0.022050455 0.013551818 0.057056069 55 54 48
-0.0083630849 0.012696357 0.057056069 105 97 93
-0.0062292465 0.013540766 0.056556076 92 86 82
-0.004376268 0.01382115 0.05638941 81 76 72
-0.0019494371 0.0143868 0.056056082 77 72 68
-0.028142504 0.016083743 0.055056095 24 28 28
-0.025972204 0.016092358 0.055556089 33 38 37
-0.023761379 0.0161182 0.057056069 37 40 35
-0.022050455 0.01569047 0.057056069 51 51 47
-0.0057967026 0.015262741 0.057056069 94 89 85
-0.0039191372 0.015932351 0.056256078 89 83 81
-0.0016283864 0.01620104 0.055681087 84 79 77
0.0014822632 0.016517004 0.055306092 87 82 77
0.0027711794 0.01694246 0.055056095 87 83 76
-0.025972206 0.019095009 0.055556089 34 37 36
-0.023784082 0.019106545 0.056556076 42 45 40
-0.0013055336 0.01889845 0.057056069 85 80 76
0.0014768129 0.01910614 0.056556076 77 72 68
0.0027678609 0.019094605 0.055556089 82 78 71
-0.025542848 0.021238947 0.055556089 32 35 34
-0.023784082 0.02124723 0.056556076 38 40 37
-0.022050455 0.021250965 0.057056069 46 46 42
0.0019024445 0.020395506 0.057056069 81 73 70
0.0036158382 0.021248691 0.056806073 87 82 77
0.00597574 0.021673501 0.056306079 94 87 81
-0.025566364 0.023382809 0.055056095 24 28 28
-0.023798674 0.023815731 0.056222748 29 33 30
-0.022050455 0.023817347 0.057056069 38 41 36
0.0064649028 0.023532195 0.057056069 92 85 79
0.0090958485 0.023987079 0.056656074 94 86 82
0.010478327 0.024671845 0.056056082 94 86 83
-0.026425079 0.026388306 0.055056095 29 40 38
-0.02382786 0.026816111 0.055556089 29 35 32
-0.022050455 0.02681146 0.057056069 32 35 32
0.0093164379 0.026668886 0.057056069 87 80 76
0.011035535 0.026955344 0.056722742 90 84 78
-0.025566364 0.028964447 0.055056095 30 41 39
-0.023816509 0.028958663 0.055806085 29 36 35
-0.022050455 0.028950112 0.057056069 29 32 31
0.011597667 0.028664961 0.057056069 95 89 82
0.013049589 0.029814368 0.056056082 99 92 84
-0.025566364 0.031111229 0.055056095 31 42 40
-0.023791106 0.031524252 0.05638941 29 39 37
-0.022050455 0.031516492 0.057056069 26 32 30
0.012167974 0.030661035 0.057056069 96 87 80
0.013308588 0.031516496 0.057056069 102 94 87
-0.023794621 0.034524113 0.056306079 31 41 39
-0.022050455 0.034510605 0.057056069 31 39 38
0.014734358 0.034082878 0.057056069 106 99 91
-0.022948069 0.036242522 0.056056082 30 41 39
-0.022070719 0.03623243 0.056556076 32 40 39
-0.022990223 0.038410295 0.055056095 33 41 40
-0.021561494 0.038546957 0.056456078 33 40 38
0.019906284 0.039242327 0.056056082 85 80 76
-0.02065062 0.040660281 0.05638941 42 44 41
0.019906286 0.040956501 0.056056082 90 83 78
0.020804163 0.040986437 0.055056095 85 79 76
-0.020376807 0.042670675 0.056056082 35 42 36
-0.01862861 0.043492943 0.057056069 33 40 32
0.021578044 0.049481172 0.057056069 85 82 79
0.052374639 0.14785916 0.057056069 74 74 70
0.053435281 0.14918433 0.055056095 80 80 74
0.056547534 0.14853412 0.055389423 67 68 61
0.05836286 0.14871462 0.057056069 67 67 63
0.05333269 0.15066364 0.056056082 72 72 68
0.058419034 0.15097313 0.056556076 75 75 75
0.041173808 -0.072663352 0.058056056 69 69 65
0.04373531 -0.072663352 0.058056056 87 82 77
0.036477715 -0.070955679 0.058056056 76 71 71
0.038612306 -0.070528768 0.058056056 63 60 58
0.04074689 -0.070528768 0.058056056 69 69 63
0.04373531 -0.070528768 0.058056056 82 78 72
0.046296813 -0.070528768 0.058056056 93 88 80
0.048289094 -0.070386462 0.058056056 94 86 77
0.036620025 -0.068678789 0.058056056 67 60 60
0.038593166 -0.06877654 0.058306053 58 56 52
0.040667884 -0.06864205 0.059056044 60 59 54
0.043480169 -0.06872727 0.059056044 79 76 69
0.046207238 -0.06864205 0.059056044 87 82 74
0.048361372 -0.068687014 0.058806047 94 87 79
0.050517134 -0.068731979 0.05855605 99 91 85
0.0364598 -0.066216253 0.058306053 81 73 71
0.038253296 -0.066227458 0.059056044 57 52 50
0.040241782 -0.066511527 0.059056044 55 52 49
0.050468277 -0.066511527 0.059056044 108 101 93
0.033489302 -0.063271172 0.058056056 110 110 106
0.036015231 -0.064040221 0.05855605 99 92 87
0.033489302 -0.061136585 0.058056056 103 103 99
0.035358697 -0.06165304 0.058806047 109 107 101
0.033424117 -0.058841653 0.059056044 91 92 86
-0.02030226 0.011012422 0.058056056 72 72 63
-0.018167673 0.011012423 0.058056056 75 73 65
-0.016033089 0.011012423 0.058056056 85 81 76
-0.013578315 0.011012422 0.058056056 91 87 82
-0.010910083 0.011866257 0.058056056 104 97 91
-0.020729177 0.013573926 0.058056056 63 63 56
-0.018167675 0.013573926 0.058056056 68 66 60
-0.016033089 0.013573926 0.058056056 82 77 73
-0.013471586 0.013573925 0.058056056 86 81 77
-0.010483166 0.013573926 0.058056056 98 91 85
-0.0092024142 0.014427761 0.058056056 102 95 89
-0.0074947448 0.014427762 0.058056056 101 93 90
-0.021013789 0.01613543 0.058056056 60 60 55
-0.018167675 0.015708512 0.058056056 69 67 62
-0.016011639 0.015721839 0.058806047 76 71 67
-0.013447322 0.015726553 0.059056044 84 79 75
-0.010469034 0.015721839 0.058806047 93 87 81
-0.0087642111 0.015721839 0.058806047 94 89 84
-0.0063562994 0.01585082 0.058056056 93 88 84
-0.0049332418 0.016989265 0.058056056 91 86 82
-0.021028792 0.018942881 0.05819891 49 49 45
-0.018140135 0.018707223 0.058889378 66 62 57
-0.016003946 0.018709281 0.059056044 74 68 62
-0.013617763 0.018197956 0.059056044 83 79 73
-0.010322559 0.018141143 0.059056044 93 89 82
-0.0087601775 0.018283177 0.059056044 94 90 83
-0.0062035532 0.01870928 0.059056044 93 88 82
-0.0040762206 0.019129211 0.05855605 91 86 82
-0.0019448212 0.019550767 0.058056056 90 85 81
-0.020729177 0.021258434 0.058056056 52 49 45
-0.018134465 0.021265905 0.059056044 61 59 54
-0.016288014 0.020981835 0.059056044 66 65 58
-0.0037889641 0.020981835 0.059056044 91 86 82
-0.0015166365 0.021262875 0.058722716 89 83 79
0.0013282107 0.021543048 0.058056056 86 78 75
-0.02081456 0.023649171 0.058056056 43 43 38
-0.018134465 0.023396425 0.059056044 54 54 48
-0.016856153 0.022970321 0.059056044 59 59 53
-0.0013033572 0.023183376 0.059056044 101 96 91
0.0014675716 0.023395373 0.058806047 94 86 83
0.0037758693 0.023649171 0.058056056 91 85 80
0.0055973828 0.024389163 0.058056056 89 84 77
-0.020636339 0.026552076 0.058256052 39 43 38
-0.018134465 0.026379153 0.059056044 44 44 41
0.001466319 0.025526946 0.059056044 98 90 87
0.003596839 0.026379153 0.059056044 92 85 82
0.0061605773 0.026806673 0.05855605 83 79 73
0.0087281093 0.027235277 0.058056056 83 79 72
-0.020710539 0.028939361 0.05855605 31 34 31
-0.018134465 0.028935779 0.059056044 39 39 39
0.0063268594 0.028766448 0.058856048 80 78 71
0.0091550266 0.028942946 0.058056056 96 92 84
0.010435778 0.029796781 0.058056056 96 89 81
-0.020716751 0.031500701 0.058389384 25 30 28
-0.018134465 0.031066298 0.059056044 40 41 37
0.007005672 0.030640196 0.059056044 83 76 70
0.0091411034 0.031068906 0.058806047 86 78 72
0.011005 0.031219838 0.058056056 93 82 75
0.012997282 0.032358285 0.058056056 102 95 87
-0.020719858 0.034488633 0.058306053 27 32 30
-0.018219685 0.034219466 0.059056044 28 29 25
0.0095622968 0.033196818 0.059056044 95 86 81
0.011550781 0.033480886 0.059056044 98 90 83
0.013675119 0.034574546 0.058256052 101 95 87
-0.020586871 0.036342844 0.058056056 29 33 32
-0.018134465 0.036605649 0.059056044 28 29 25
0.014249441 0.035753444 0.059056044 100 93 85
0.016412618 0.03577362 0.058056056 104 97 89
-0.02030226 0.03876204 0.058056056 38 39 37
-0.018142972 0.03874284 0.058806047 36 35 31
-0.018159574 0.040888734 0.058306053 46 43 38
-0.016856151 0.0417189 0.059056044 38 33 31
-0.018003769 0.042866241 0.058722716 35 40 33
-0.016856151 0.042997211 0.059056044 35 36 32
-0.017708359 0.045127731 0.059056044 35 41 39
-0.016288012 0.045979936 0.059056044 34 40 39
-0.015151737 0.047684357 0.059056044 33 41 40
0.019788794 0.047684357 0.059056044 91 86 84
0.020661399 0.048558038 0.05855605 87 84 81
-0.01344732 0.051093191 0.059056044 32 40 39
0.022345418 0.050240982 0.059056044 83 80 77
-0.0057870736 0.064803988 0.058056056 32 38 38
-0.0049252389 0.065580726 0.059056044 33 39 37
0.03938958 0.076659434 0.059056044 80 75 71
0.040241789 0.077511638 0.059056044 78 75 70
0.058250513 0.14762592 0.058056056 65 65 61
0.044416491 -0.068037704 0.06005609 78 76 68
0.039313 -0.065485954 0.06005609 55 52 49
0.040730637 -0.065769486 0.06005609 59 56 53
0.043523561 -0.065824576 0.060556084 80 81 72
0.046072867 -0.065824568 0.060556084 92 91 83
0.048197284 -0.065824568 0.060556084 100 97 90
0.050370563 -0.065485954 0.06005609 106 99 91
0.038443279 -0.063742667 0.060306087 58 52 49
0.040529415 -0.063657619 0.060806081 60 57 53
0.04341035 -0.063473202 0.061889399 85 84 76
0.04622094 -0.063727021 0.062056065 89 87 79
0.048056819 -0.063444577 0.062056065 102 97 90
0.050523266 -0.063275538 0.061389405 112 105 97
0.036421023 -0.061062932 0.06005609 82 75 70
0.038405806 -0.06153401 0.060806081 56 50 48
0.040450402 -0.061367974 0.061806068 55 52 48
0.042831618 -0.06146748 0.062056065 74 72 68
0.033358928 -0.057830721 0.06005609 89 90 84
0.036263868 -0.058096476 0.061056077 70 69 67
0.038754527 -0.058612928 0.061806068 48 47 47
0.040289629 -0.058925495 0.062056065 51 49 49
0.034175292 -0.056051821 0.060556084 90 89 84
0.036441077 -0.056320019 0.061556071 79 78 76
0.03915986 -0.05666595 0.062056065 47 46 46
0.040430851 -0.05666595 0.062056065 53 52 52
0.042549178 -0.05666595 0.062056065 61 62 58
0.034991655 -0.053851698 0.061056077 88 88 82
0.036637895 -0.054167219 0.061770353 78 78 70
0.034567177 -0.05066812 0.061056077 88 89 80
0.036194209 -0.051158309 0.062056065 92 91 82
0.034142703 -0.049182445 0.061056077 86 86 77
0.036194209 -0.049463652 0.062056065 91 91 81
0.034271426 -0.046722818 0.061656069 86 88 79
0.036194209 -0.046498001 0.062056065 93 93 84
0.034923214 -0.043532349 0.062056065 88 86 78
0.036194209 -0.043532349 0.062056065 90 91 80
0.034923214 -0.041837689 0.062056065 92 90 80
0.036194209 -0.041837692 0.062056065 94 95 84
0.034946028 -0.038912479 0.061722737 94 92 82
0.036194209 -0.038872037 0.062056065 98 97 86
0.034402873 -0.03640876 0.061389405 91 90 78
0.036448408 -0.035821654 0.062056065 94 93 81
0.034991655 -0.034325726 0.061056077 91 89 78
0.036617871 -0.034211729 0.062056065 91 89 78
0.034991655 -0.031354383 0.061056077 94 91 82
0.036617871 -0.031246079 0.062056065 97 95 85
0.034957435 -0.028331324 0.061556071 94 90 83
0.036617871 -0.028280428 0.062056065 98 95 86
0.036194209 -0.026585769 0.062056065 94 92 82
0.035770543 -0.024043782 0.062056065 95 93 83
0.034991655 -0.019469004 0.061056077 92 88 77
-0.013210412 0.019359566 0.06005609 78 74 67
-0.010587786 0.019288687 0.06005609 93 89 82
-0.0087448591 0.019572213 0.06005609 97 93 85
-0.015124222 0.022123957 0.06005609 73 73 69
-0.013423059 0.021273375 0.06005609 74 72 68
-0.010446022 0.021273376 0.06005609 89 87 78
-0.0087448582 0.021273376 0.06005609 90 86 77
-0.0061931144 0.021273376 0.06005609 92 88 80
-0.0049172416 0.022123957 0.06005609 98 94 87
-0.015691279 0.023541594 0.06005609 64 64 60
-0.013423058 0.02339983 0.06005609 78 77 72
-0.010441584 0.023400476 0.060306087 82 81 72
-0.0087408256 0.023400478 0.060306087 91 86 76
-0.0061931135 0.02339983 0.06005609 91 86 78
-0.0040666596 0.02339983 0.06005609 99 96 89
-0.0019402056 0.02382512 0.06005609 105 101 94
-0.015974805 0.026376866 0.06005609 54 53 49
-0.013410121 0.026375413 0.060611639 71 68 61
-0.010427452 0.026374578 0.061056077 79 73 66
-0.0087295398 0.026374578 0.061056077 94 89 81
-0.0061826743 0.026374578 0.061056077 96 89 81
-0.0040624109 0.026374796 0.06072275 100 96 87
-0.0015144164 0.02637556 0.060389418 100 93 87
0.0014621216 0.026802156 0.06005609 94 87 82
0.0027379941 0.027227448 0.06005609 92 84 81
-0.015974805 0.02892861 0.06005609 51 50 47
-0.013398796 0.029345922 0.061056077 65 63 56
-0.010427452 0.029345922 0.061056077 79 74 69
-0.0087259142 0.029343721 0.061306074 83 79 71
-0.0061774543 0.029341523 0.061556071 111 104 96
-0.0040570991 0.029341524 0.061556071 109 102 94
-0.0015128996 0.029344456 0.061222743 103 94 91
0.0014591767 0.029135071 0.060806081 98 92 85
0.0035885759 0.028928611 0.06005609 89 84 79
0.005289739 0.029779194 0.06005609 83 80 75
-0.015974805 0.031055067 0.06005609 51 50 48
-0.013398795 0.031043833 0.061056077 61 61 57
-0.010568944 0.030902341 0.061056077 75 70 66
-0.0089684203 0.031117331 0.062056065 83 79 74
-0.0061722347 0.031032598 0.062056065 106 99 91
-0.0040539121 0.031032598 0.062056065 110 103 95
-0.0015119252 0.031032598 0.062056065 100 92 88
0.0014549789 0.031035203 0.061806068 91 84 78
0.0035803122 0.031043833 0.061056077 93 88 83
0.0059679016 0.031137716 0.060256086 88 82 78
-0.017675966 0.033181518 0.06005609 38 39 35
-0.015974803 0.034032103 0.06005609 40 40 39
-0.013398795 0.034015175 0.061056077 56 56 53
-0.010845467 0.034008991 0.061389405 69 65 61
-0.0091378856 0.033998247 0.062056065 82 78 72
-0.0063134562 0.033433367 0.062056065 96 92 85
-0.0049012415 0.033150923 0.062056065 104 100 91
-0.00066459604 0.033150923 0.062056065 104 97 91
0.001594948 0.033433367 0.062056065 97 89 85
0.0037415151 0.033828788 0.062056065 99 93 87
0.0061231591 0.034008816 0.061389405 102 94 89
0.0090211611 0.034191411 0.060656082 96 87 83
0.010960285 0.034599155 0.06005609 95 87 81
-0.015974803 0.036583848 0.06005609 33 34 32
-0.013398794 0.03656204 0.061056077 47 48 43
-0.010842236 0.036550324 0.061556071 58 56 52
-0.009702771 0.03682268 0.062056065 65 61 55
0.0069613652 0.03654024 0.062056065 123 116 108
0.0090846 0.036757115 0.061806068 102 95 90
0.011221725 0.036561228 0.061056077 97 90 83
0.013582912 0.037009139 0.06005609 92 86 78
0.0163473 0.037434429 0.06005609 106 99 91
-0.015974803 0.0387103 0.06005609 34 34 31
-0.013395022 0.038679983 0.061222743 40 41 36
-0.010832543 0.038658559 0.062056065 46 45 43
-0.0099852141 0.038658559 0.062056065 53 50 47
0.011480453 0.038517337 0.062056065 99 92 86
0.013763689 0.038679715 0.061222743 93 86 80
0.016330972 0.03869696 0.060556084 106 99 91
-0.015691275 0.04112028 0.06005609 35 33 30
-0.013267813 0.041399688 0.061484642 39 40 34
-0.010832543 0.041624211 0.062056065 41 41 41
-0.0099852141 0.041200548 0.062056065 40 40 36
0.014163662 0.040776882 0.062056065 98 90 84
0.016714219 0.041208033 0.061806068 101 92 85
0.034092188 0.042055767 0.061806068 44 42 39
0.036052991 0.041624215 0.062056065 43 42 38
-0.015124221 0.04296321 0.06005609 35 35 31
-0.013573763 0.043021064 0.060856082 38 38 33
-0.010851928 0.043353684 0.061056077 39 39 39
-0.0099852141 0.0441662 0.062056065 38 38 38
0.032444794 0.042504732 0.061056077 49 49 45
0.03407589 0.0441662 0.062056065 53 50 47
-0.015124221 0.045514952 0.06005609 29 33 33
-0.013407424 0.045913782 0.06072275 29 32 29
-0.010832543 0.045860857 0.062056065 35 37 36
-0.0099852141 0.045860857 0.062056065 37 39 38
0.032413013 0.045456227 0.061556071 55 52 49
0.033906423 0.045691393 0.062056065 54 50 49
-0.013411469 0.048894722 0.060556084 30 37 36
-0.010842236 0.048849605 0.061556071 30 35 33
-0.009702771 0.04896773 0.062056065 36 39 37
0.018881094 0.049319472 0.060556084 97 91 86
0.024804197 0.049296372 0.061056077 79 74 70
0.02650211 0.049296372 0.061056077 77 72 69
0.028624497 0.049296372 0.061056077 73 69 64
0.033228561 0.048402846 0.062056065 51 50 50
-0.012848456 0.050460737 0.060389418 32 39 38
-0.010568942 0.0507113 0.061056077 27 33 31
-0.0094203278 0.050662387 0.062056065 30 33 31
0.018843554 0.050968744 0.061556071 97 90 85
0.021421431 0.050726157 0.06072275 86 83 79
0.024367489 0.050980702 0.061306074 81 77 72
0.02646257 0.050956786 0.061806068 79 74 71
0.028991921 0.050944831 0.062056065 73 69 64
0.031533904 0.05179216 0.062056065 67 67 61
-0.012572475 0.052744899 0.06005609 33 41 40
-0.010432296 0.053554736 0.060806081 32 38 38
-0.0089966627 0.05348682 0.062056065 29 33 33
0.02139478 0.052674633 0.061389405 85 80 76
0.024343435 0.053076327 0.061806068 79 76 71
0.02616749 0.052921932 0.062056065 82 77 74
0.028568255 0.052639492 0.062056065 76 72 69
-0.01001185 0.056542911 0.060556084 32 40 39
-0.0087142196 0.056452468 0.062056065 30 38 37
-0.010020729 0.058273681 0.06005609 33 41 40
-0.0087259123 0.058195196 0.061306074 32 40 39
-0.0066071507 0.058634881 0.061056077 32 38 38
-0.0085885888 0.060615778 0.061056077 32 40 39
-0.0063896915 0.061359905 0.061556071 32 38 38
-0.0057581943 0.063728616 0.061056077 33 39 39
-0.0049012396 0.06450209 0.062056065 30 36 34
-0.0032089546 0.065812454 0.061556071 32 39 36
-0.0019367413 0.068780951 0.061556071 30 38 37
-0.0010886319 0.071726918 0.061806068 30 38 37
-0.00066446187 0.073067129 0.061056077 29 37 36
0.0013136355 0.073571391 0.061722737 28 36 35
0.0018824043 0.07561399 0.061056077 28 36 35
0.0032896085 0.076364696 0.062056065 28 36 35
0.039313007 0.077411771 0.06005609 86 81 77
0.04093435 0.077311903 0.061056077 71 68 63
0.0044292705 0.079009816 0.061056077 28 36 35
0.0052667093 0.079754025 0.062056065 27 35 34
0.040430859 0.0789067 0.062056065 74 72 65
0.042549185 0.0789067 0.062056065 68 65 62
0.050697342 0.14692624 0.061056077 74 75 71
0.05292232 0.14715947 0.06005609 98 98 92
0.05870543 0.14893039 0.061556071 73 73 69
0.052071739 0.15056178 0.06005609 80 80 76
0.058762416 0.15032205 0.061056077 75 75 71
0.043875605 -0.061019272 0.063056052 85 84 77
0.04567977 -0.061413933 0.063056052 94 92 84
0.047963168 -0.061160222 0.063056052 110 105 97
0.050077427 -0.061583079 0.063056052 118 111 103
0.041902304 -0.058482166 0.063056052 57 56 53
0.043953512 -0.05847441 0.063456044 81 82 74
0.046621002 -0.058578759 0.063856043 98 98 88
0.04829156 -0.058461957 0.064056039 106 102 95
0.050500281 -0.05904597 0.063056052 116 110 102
0.039928995 -0.057354562 0.063056052 48 47 47
0.0416204 -0.057354562 0.063056052 56 56 54
0.044071179 -0.056351766 0.064056039 83 83 77
0.047025446 -0.056351766 0.064056039 105 98 90
0.04829156 -0.057195842 0.064056039 104 100 91
0.037391886 -0.053126052 0.063056052 60 58 50
0.039506141 -0.053971749 0.063056052 55 54 52
0.041552253 -0.053845178 0.063889377 62 62 58
0.043965667 -0.053925045 0.064056039 79 79 73
0.046603408 -0.054663613 0.064056039 124 117 109
0.049979713 -0.053397499 0.064056039 136 124 108
0.037391886 -0.051011793 0.063056052 59 52 46
0.039506145 -0.051011793 0.063056052 54 52 49
0.04153895 -0.05086527 0.064056039 64 64 59
0.043649141 -0.05086527 0.064056039 77 78 72
0.050823789 -0.05086527 0.064056039 123 112 103
0.037391886 -0.049320385 0.063056052 59 53 47
0.039506145 -0.049320385 0.063056052 54 51 48
0.041579679 -0.049248345 0.063556045 64 64 59
0.043670315 -0.049001712 0.063806042 76 75 69
0.037391886 -0.046360429 0.063056052 59 55 48
0.039506145 -0.046360433 0.063056052 52 51 48
0.04153895 -0.046222851 0.064056039 65 65 60
0.043649141 -0.046222851 0.064056039 77 76 70
0.050823789 -0.046222851 0.064056039 98 91 84
0.037391886 -0.043400466 0.063056052 58 55 50
0.039506145 -0.043400466 0.063056052 52 52 50
0.04153895 -0.043268584 0.064056039 58 59 54
0.043649141 -0.043268584 0.064056039 67 68 64
0.037391886 -0.041709062 0.063056052 62 62 56
0.039506145 -0.041709062 0.063056052 51 51 49
0.04153895 -0.041158393 0.064056039 58 59 55
0.043902364 -0.040989578 0.064056039 73 72 69
0.037391886 -0.038749103 0.063056052 71 71 63
0.039506145 -0.038749103 0.063056052 52 52 50
0.041552253 -0.038646381 0.063889377 58 59 54
0.044071179 -0.03862616 0.064056039 74 71 67
0.046603408 -0.037782088 0.064056039 85 82 77
0.037391886 -0.036211994 0.063056052 90 86 77
0.039506145 -0.035789143 0.063056052 55 51 46
0.041578859 -0.035730518 0.063556045 59 58 54
0.044071179 -0.035671894 0.064056039 66 65 60
0.046884764 -0.035531212 0.064056039 85 82 77
0.03946745 -0.033619106 0.063556045 54 46 43
0.041558906 -0.033590406 0.063806042 57 56 51
0.044071179 -0.033561703 0.064056039 62 62 57
0.047025446 -0.033561703 0.064056039 91 87 82
0.04829156 -0.032717627 0.064056039 99 92 86
0.039506141 -0.031137779 0.063056052 62 56 49
0.041620404 -0.031137779 0.063056052 59 57 49
0.044071179 -0.031029476 0.064056039 59 60 53
0.047025446 -0.031029476 0.064056039 89 88 82
0.04829156 -0.031451512 0.064056039 95 90 86
0.039506145 -0.028177816 0.063056052 58 56 48
0.041599631 -0.028152367 0.063306049 61 60 52
0.044071179 -0.028075209 0.064056039 64 65 58
0.046884764 -0.028215885 0.064056039 82 82 75
0.037391886 -0.02648641 0.063056052 95 93 83
0.039486591 -0.026250754 0.063306049 61 54 49
0.041558906 -0.025990056 0.063806042 61 59 52
0.043902364 -0.02613383 0.064056039 63 64 57
0.036787815 -0.023405636 0.063056052 96 94 84
0.039480079 -0.023495501 0.063389383 62 53 50
0.04153895 -0.023432784 0.064056039 59 57 51
0.043508459 -0.023995502 0.064056039 59 60 52
0.036546186 -0.020566493 0.063056052 94 92 81
0.039428759 -0.020478517 0.064056039 54 49 45
0.040694874 -0.020478517 0.064056039 53 50 45
0.036521744 -0.018846845 0.063389383 97 94 83
0.039288078 -0.018931044 0.064056039 56 53 49
0.036657322 -0.016358675 0.063856043 98 94 83
0.039006721 -0.016680174 0.064056039 51 46 42
0.036755849 -0.014429304 0.064056039 95 92 81
0.036193132 -0.012178429 0.064056039 71 72 60
-0.0060208444 0.034545127 0.063056052 100 95 91
-0.0038783974 0.034150466 0.063056052 101 97 90
-0.0016161432 0.03408704 0.063056052 103 96 90
0.0013085784 0.034545127 0.063056052 99 91 88
0.0027180831 0.034827027 0.063056052 99 91 88
-0.008557952 0.037082236 0.063056052 69 64 60
-0.0061617945 0.036941282 0.063056052 81 78 75
-0.0040443512 0.03692957 0.063556045 98 96 89
-0.0015089139 0.036922302 0.063889377 100 95 89
0.0014474301 0.03692957 0.063556045 97 91 88
0.0035621265 0.036935426 0.063306049 97 92 87
0.0059317537 0.03702585 0.063056052 106 100 93
-0.0086989021 0.038632691 0.063056052 61 57 52
-0.0061593875 0.038626425 0.063306049 79 76 73
-0.0040443512 0.038620159 0.063556045 90 86 84
-0.0015089355 0.039028857 0.064056039 101 97 92
0.0014453316 0.039028857 0.064056039 101 96 91
0.0035555223 0.039028857 0.064056039 94 89 84
0.0060970555 0.038764745 0.063389383 96 91 84
0.0090608532 0.038632691 0.063056052 99 95 88
0.010329407 0.039055541 0.063056052 100 96 89
-0.0088801244 0.041713469 0.063056052 46 46 41
-0.0061513553 0.041561086 0.064056039 57 54 50
-0.0044632023 0.041350067 0.064056039 70 66 62
0.0043995986 0.040717009 0.064056039 99 94 90
0.0062565664 0.04105464 0.064056039 99 94 90
0.0090420181 0.041561086 0.064056039 95 91 86
0.01116393 0.04157633 0.063556045 99 93 87
0.013587667 0.041829538 0.063198909 100 93 87
0.016672177 0.042438354 0.063056052 106 97 90
0.036932379 0.041999318 0.063556045 49 48 44
-0.0086989021 0.044552609 0.063056052 40 41 39
-0.0061513544 0.044515353 0.064056039 56 57 49
0.011152209 0.044093315 0.064056039 98 92 87
0.013684438 0.044515353 0.064056039 95 87 81
0.016655441 0.044533581 0.063556045 100 91 84
0.032317676 0.044129759 0.063056052 56 53 50
0.036521748 0.044540193 0.063389383 49 46 43
-0.0086989021 0.046244014 0.063056052 39 41 39
-0.0061513544 0.046203509 0.064056039 49 50 42
-0.0040411637 0.046625547 0.064056039 59 59 50
-0.0023530114 0.046625547 0.064056039 71 69 61
0.014528515 0.046203509 0.064056039 93 84 79
0.016216667 0.045781471 0.064056039 95 86 81
0.032317676 0.046666868 0.063056052 54 51 48
0.034854781 0.046666868 0.063056052 43 40 37
0.03629851 0.046012744 0.063556045 52 49 46
-0.008557952 0.048640173 0.063056052 46 48 44
-0.0061541675 0.048747286 0.063806042 46 46 41
-0.0048852395 0.048735738 0.064056039 45 46 39
0.034854781 0.048781127 0.063056052 49 48 45
0.036069974 0.04874688 0.063806042 42 42 38
-0.0082760509 0.050895378 0.063056052 34 34 32
-0.0061569801 0.050870653 0.063556045 33 33 31
-0.0048852395 0.050845928 0.064056039 34 33 31
0.020900691 0.051741086 0.063056052 86 83 80
0.03563042 0.050845928 0.064056039 52 52 48
-0.00827605 0.052586786 0.063056052 29 32 31
-0.0061601885 0.053423706 0.063222714 30 30 31
-0.0040411633 0.053378154 0.064056039 35 34 32
-0.0019309728 0.054222234 0.064056039 39 36 31
0.019632136 0.052586786 0.063056052 94 86 83
0.021309948 0.053414375 0.063389383 86 82 78
0.024259854 0.054250211 0.063556045 79 76 71
0.026679659 0.053996291 0.063056052 89 82 80
0.029055681 0.05367412 0.063056052 77 73 70
0.031471971 0.053432491 0.063056052 74 71 68
0.03563042 0.052534081 0.064056039 53 53 49
-0.0061617931 0.056392446 0.063056052 29 32 32
-0.0040411633 0.056332421 0.064056039 32 34 30
0.024376072 0.056191742 0.064056039 98 91 86
0.026359033 0.056347221 0.063806042 102 93 89
0.028896557 0.056352157 0.063722707 94 86 85
0.03173323 0.056513119 0.063389383 90 83 79
-0.0060208426 0.058224801 0.063056052 30 34 34
-0.0040431633 0.058459044 0.063806042 31 33 29
-0.0023530107 0.058442615 0.064056039 32 33 27
0.027189659 0.057598535 0.064056039 96 86 84
0.028877812 0.057598535 0.064056039 93 85 82
0.031832077 0.057598539 0.064056039 91 84 81
-0.005738942 0.060620956 0.063056052 31 35 36
-0.0040459544 0.061021093 0.063389383 30 33 31
-0.0018465647 0.061312474 0.064056039 32 34 31
-0.0037656354 0.063862815 0.063056052 30 36 34
-0.0016783734 0.064028606 0.063856043 30 35 33
-0.0015102234 0.066078939 0.063556045 30 36 34
-0.00087618432 0.068423212 0.063306049 29 37 35
0.0013616026 0.068757392 0.063856043 29 36 33
0.0014482783 0.071592979 0.063306049 28 36 35
0.0027114481 0.071525797 0.064056039 28 36 35
0.0018723824 0.072883651 0.063056052 28 36 35
0.0035571835 0.073659733 0.063806042 26 34 33
0.0052436767 0.074480064 0.064056039 26 32 32
0.0044094906 0.075843602 0.063056052 26 34 33
0.0058517568 0.07633137 0.063627474 28 34 34
0.037391894 0.077112168 0.063056052 93 89 82
0.0062670829 0.079121217 0.063256048 29 37 36
0.0086199818 0.079122476 0.064056039 32 35 35
0.039006729 0.078700446 0.064056039 90 88 80
0.041620407 0.07964927 0.063056052 78 75 71
0.0065237479 0.081340671 0.063056052 27 35 34
0.0086199827 0.081232667 0.064056039 27 32 33
0.041538958 0.080388598 0.064056039 86 83 79
0.0069465991 0.083032072 0.063056052 26 34 35
0.0086199827 0.083764888 0.064056039 26 34 35
0.009464059 0.087141201 0.064056039 24 35 35
0.009464059 0.088829353 0.064056039 23 34 34
0.016216671 0.1048668 0.064056039 24 37 34
0.016216671 0.10571088 0.064056039 24 37 34
0.051667877 0.14707063 0.064056039 72 72 68
0.051768843 0.14899689 0.063056052 75 75 71
0.048197102 -0.055352218 0.065056086 99 88 79
0.044827301 -0.05282487 0.065056086 87 84 79
0.047017671 -0.053498827 0.065056086 125 117 109
0.048618328 -0.053877931 0.065056086 131 120 109
0.044827301 -0.050718743 0.065056086 87 87 81
0.046933427 -0.050718747 0.065056086 106 102 93
0.04903955 -0.050718747 0.065056086 120 113 103
0.044827301 -0.048612621 0.065056086 82 81 75
0.046933427 -0.048612621 0.065056086 97 93 83
0.04903955 -0.048612621 0.065056086 105 97 89
0.05072445 -0.048612621 0.065056086 105 96 89
0.044827301 -0.046085268 0.065056086 80 77 72
0.046933424 -0.046085268 0.065056086 88 81 76
0.049039554 -0.046085268 0.065056086 94 87 81
0.044827301 -0.043136694 0.065056086 78 75 72
0.046933427 -0.043136694 0.065056086 90 83 80
0.048758734 -0.043277103 0.065056086 90 84 78
0.044827301 -0.041873015 0.065056086 69 69 65
0.046933427 -0.041030567 0.065056086 77 74 70
0.048758734 -0.040749751 0.065056086 88 87 81
0.047017671 -0.03867171 0.065056086 90 87 82
0.049039554 -0.038503218 0.065056086 91 89 83
0.04735465 -0.03597587 0.065056086 88 88 82
0.049039554 -0.035554644 0.065056086 91 88 82
0.048197102 -0.034290969 0.065056086 111 106 102
0.04932037 -0.030359536 0.065056086 97 91 85
0.05072445 -0.03007872 0.065056086 94 90 83
0.04735465 -0.027551368 0.065056086 89 87 79
0.04903955 -0.027972594 0.065056086 90 86 77
0.05072445 -0.027972594 0.065056086 90 86 79
0.044827301 -0.025024019 0.065056086 60 61 55
0.046933427 -0.025866468 0.065056086 91 89 81
0.04903955 -0.025866468 0.065056086 97 94 86
0.05072445 -0.02670892 0.065056086 100 96 89
0.044546485 -0.023619935 0.065056086 60 61 55
0.046933427 -0.023760345 0.065056086 86 84 76
0.048991509 -0.023713509 0.065556079 95 93 85
0.050835319 -0.023876067 0.066056073 97 95 87
0.042299952 -0.02081177 0.065056086 62 63 54
0.043984856 -0.021654218 0.065056086 63 64 56
0.046864208 -0.021586813 0.065806076 80 79 71
0.048943464 -0.021563804 0.066056073 97 94 87
0.051045522 -0.021563806 0.066056073 99 96 89
0.04173832 -0.019407686 0.065056086 58 58 50
0.043941144 -0.019505056 0.065556079 61 62 55
0.046841405 -0.019461745 0.066056073 81 81 72
0.048895419 -0.019418979 0.066556066 96 92 85
0.050945371 -0.019375399 0.06705606 104 100 93
0.039561987 -0.016388906 0.065056086 49 46 43
0.041443657 -0.016586347 0.065222748 55 53 50
0.043907933 -0.016528003 0.065944962 65 65 61
0.046764582 -0.016451923 0.066889398 69 69 62
0.048847377 -0.016438209 0.06705606 83 79 74
0.050945371 -0.016857807 0.06705606 93 89 85
0.037245251 -0.013229717 0.065056086 90 91 78
0.039351374 -0.014072167 0.065056086 52 50 41
0.041376051 -0.013996391 0.066056073 52 51 46
0.043840427 -0.013666143 0.066722728 72 73 67
0.046749383 -0.013501018 0.06705606 74 74 68
0.048008181 -0.013920616 0.06705606 75 72 67
0.037245251 -0.011966044 0.065056086 63 65 52
0.039312277 -0.011930188 0.065556079 54 55 45
0.041376051 -0.011894332 0.066056073 51 52 45
0.043840427 -0.011846525 0.066722728 71 73 65
0.046329785 -0.011822622 0.06705606 74 75 67
0.036824029 -0.0090174684 0.065056086 94 93 83
0.039273992 -0.0089514479 0.066056073 68 69 61
0.04134836 -0.0089297136 0.066389404 51 53 46
0.043572426 -0.0090053165 0.06705606 65 67 58
0.036805697 -0.0064752409 0.065306082 95 92 82
0.039273992 -0.0064289784 0.066056073 73 74 67
0.041294605 -0.0063678417 0.06705606 51 52 46
0.042972997 -0.0063678417 0.06705606 62 64 55
0.037171938 -0.0043269228 0.066056073 94 90 81
0.039234899 -0.0042983866 0.066556066 77 73 65
0.041294605 -0.0042698504 0.06705606 50 49 43
0.037171938 -0.0013840391 0.066056073 90 88 78
0.039222136 -0.0013500567 0.066722728 82 76 66
0.040455408 -0.0017522583 0.06705606 56 51 44
0.056510881 -0.0018052636 0.066056073 104 99 92
0.037135281 0.0011608694 0.066556066 90 88 78
0.039056748 0.00090520148 0.06705606 87 82 71
0.036679022 0.003282927 0.06705606 87 85 75
0.038777016 0.003282927 0.06705606 89 86 75
0.036818888 0.0056606517 0.06705606 80 78 70
0.038777016 0.0062201172 0.06705606 83 81 71
0.03709862 0.017129682 0.06705606 50 48 40
0.036331113 0.039816316 0.066056073 38 38 32
0.039254446 0.038969234 0.066306069 36 37 29
-0.0031923407 0.041950747 0.065056086 74 70 66
-0.0015074409 0.041529521 0.065056086 95 92 86
0.0014411338 0.041529521 0.065056086 114 108 102
0.0033787687 0.041698013 0.065056086 106 100 95
0.0058639962 0.04216136 0.065056086 101 96 92
0.034717906 0.040687077 0.065056086 40 40 36
0.036367774 0.040672109 0.065556079 41 41 37
0.039312281 0.041092925 0.065556079 40 40 34
0.040455408 0.041046802 0.06705606 38 39 30
-0.0040347902 0.0444781 0.065056086 61 60 52
-0.0015074407 0.0444781 0.065056086 74 71 68
0.0014411341 0.044478096 0.065056086 120 118 109
0.0035472591 0.044478096 0.065056086 120 116 107
0.0060746088 0.0444781 0.065056086 109 104 99
0.009023183 0.044478096 0.065056086 100 95 93
0.011129308 0.044899322 0.065056086 100 94 89
0.039273724 0.044021249 0.066056073 49 49 46
0.040455408 0.043983996 0.06705606 46 46 40
-0.0040347902 0.045741774 0.065056086 61 60 52
-0.0013389506 0.046415735 0.065056086 76 73 67
0.0014377828 0.046552822 0.065806076 109 109 100
0.0035389957 0.046542898 0.066056073 114 112 103
0.0060661188 0.046556134 0.065722741 106 102 96
0.009023183 0.046584222 0.065056086 105 101 95
0.011129308 0.046584219 0.065056086 102 95 90
0.013235433 0.046584219 0.065056086 96 88 84
0.036824033 0.047426675 0.065056086 51 51 45
0.039312281 0.046563566 0.065556079 60 58 54
0.041014872 0.046221852 0.06705606 52 50 47
-0.0031923403 0.049111575 0.065056086 54 51 45
-0.0015074845 0.049096175 0.065389417 69 65 59
0.0014369367 0.04906537 0.066056073 93 92 87
0.003538996 0.049065378 0.066056073 104 101 94
0.0060614669 0.049065374 0.066056073 106 102 95
0.0090043489 0.049065378 0.066056073 96 91 87
0.011110496 0.049072802 0.065889411 96 89 86
0.013641406 0.049085364 0.065611631 98 90 87
0.016597068 0.049520843 0.065306082 102 93 88
0.037034642 0.049322188 0.065056086 65 66 60
0.039205227 0.048906125 0.065856077 53 54 48
0.040455408 0.048599578 0.06705606 52 53 49
-0.00319234 0.051638924 0.065056086 41 38 33
-0.0015074842 0.052042853 0.065389417 50 48 43
0.0014369369 0.05200826 0.066056073 76 72 68
0.003538996 0.052008256 0.066056073 90 85 80
0.0060502435 0.051964883 0.066889398 101 97 91
0.0089855148 0.051956367 0.06705606 89 85 82
0.011094959 0.051981904 0.066556066 84 79 76
0.01361989 0.051990688 0.066389404 96 88 85
0.016580332 0.052021027 0.065806076 98 90 85
0.017868908 0.052481376 0.065056086 96 89 83
0.036805704 0.052046977 0.065306082 49 49 45
0.039311163 0.051725365 0.066656068 50 51 46
0.040455408 0.051536769 0.06705606 53 54 50
-0.0015074402 0.053323824 0.065056086 41 38 33
0.001436937 0.054110311 0.066056073 70 67 62
0.0035340511 0.054082334 0.066556066 77 73 68
0.0060483241 0.054054361 0.06705606 87 84 79
0.0089855138 0.054054357 0.06705606 92 89 86
0.011083508 0.054054357 0.06705606 84 80 77
0.013601099 0.054054361 0.06705606 85 78 76
0.01654686 0.05406794 0.066806063 98 92 88
0.01868361 0.054123905 0.065806076 96 89 85
0.03652763 0.053963888 0.065656081 59 58 54
0.039196614 0.054054357 0.06705606 51 52 48
-0.0013870898 0.056091871 0.065056086 38 37 32
0.0014369371 0.056632791 0.066056073 58 55 52
0.0033668757 0.05644061 0.066456065 66 63 59
0.006048325 0.056152355 0.06705606 76 73 69
0.0089855138 0.055732749 0.06705606 82 79 76
0.011083508 0.055732749 0.06705606 80 76 73
0.013810899 0.055942547 0.06705606 83 78 76
0.016538288 0.056152347 0.06705606 101 97 89
0.018655865 0.056182362 0.066556066 102 96 91
0.021226311 0.056001406 0.065356083 90 86 81
0.023766058 0.056693621 0.065056086 91 86 82
0.0362252 0.056211974 0.066056073 60 57 55
0.039056748 0.056012485 0.06705606 48 48 46
0.062396646 0.057473615 0.066056073 75 70 66
0.06365788 0.057473615 0.066056073 87 81 76
-0.0010862149 0.058378525 0.065056086 36 36 32
0.0015770746 0.059435531 0.066056073 54 50 46
0.0037012268 0.05928399 0.066656068 65 61 57
0.005628726 0.059089541 0.06705606 75 72 67
0.016957888 0.058250342 0.06705606 90 86 79
0.018804122 0.058921702 0.06705606 91 86 80
0.021186501 0.059138425 0.066306069 96 91 87
0.024171246 0.058917705 0.065389417 98 93 88
0.026012592 0.058659341 0.065056086 104 97 92
0.0290167 0.059414752 0.065306082 99 90 87
0.031737961 0.059608527 0.065556079 91 83 80
0.034003537 0.059180897 0.065656081 80 75 72
0.036285702 0.059113372 0.066681065 63 60 58
0.03877702 0.059089541 0.06705606 52 51 51
0.062274538 0.059089541 0.06705606 84 79 75
0.063113734 0.059089541 0.06705606 111 106 102
-0.0010862148 0.060484648 0.065056086 37 38 34
0.0012990565 0.060602069 0.065389417 50 48 44
0.0038126779 0.061350387 0.066722728 61 59 53
0.005628726 0.06160713 0.06705606 71 67 63
0.021153875 0.061607134 0.06705606 99 95 88
0.024115119 0.061641619 0.066556066 101 97 89
0.02626732 0.060450166 0.065556079 99 93 87
0.028772673 0.060847316 0.065889411 100 92 87
0.031675212 0.061641619 0.066556066 97 89 86
0.03375813 0.061624378 0.066806063 83 79 75
0.036259424 0.061607137 0.06705606 61 58 56
0.03877702 0.060767937 0.06705606 48 44 49
-0.00066498964 0.063433222 0.065056086 30 34 29
0.0014394649 0.063408881 0.065389417 50 51 46
0.003370832 0.063527539 0.066056073 56 55 49
0.0058085541 0.064244613 0.06705606 62 58 55
0.021993071 0.06328553 0.06705606 99 95 88
0.024230933 0.063565262 0.06705606 107 102 93
0.026206449 0.063309602 0.066722728 100 93 87
0.028640585 0.063832693 0.066874243 95 88 82
0.031643841 0.064124726 0.06705606 95 90 85
0.033741832 0.064124726 0.06705606 88 83 78
0.035979692 0.064264588 0.06705606 73 71 65
0.03877702 0.064963922 0.06705606 50 44 46
0.0014411353 0.065960571 0.065056086 43 46 41
0.0035389969 0.065881848 0.066056073 53 53 48
0.0060512042 0.067082003 0.066806063 60 58 52
0.0018623604 0.067645475 0.065056086 35 42 36
0.0035423154 0.068025306 0.065556079 46 48 42
0.0060529313 0.068521664 0.066656068 59 58 50
0.0085659167 0.069999099 0.06705606 62 60 52
0.0039684856 0.070804656 0.065056086 33 37 33
0.0059559587 0.071032092 0.066056073 46 46 38
0.0088456497 0.071397766 0.06705606 60 58 50
0.006237193 0.073336795 0.065456077 31 35 33
0.0089900205 0.073379636 0.066806063 56 54 47
0.010244311 0.074195087 0.06705606 60 58 50
0.0069170608 0.075648747 0.065056086 33 36 36
0.0090088556 0.075575881 0.065806076 47 47 42
0.010803777 0.075593762 0.06705606 52 51 43
0.035420228 0.075453892 0.06705606 90 87 79
0.0092243804 0.078335963 0.065556079 37 39 37
0.011090599 0.078425728 0.066722728 40 41 38
0.012761903 0.079230279 0.06705606 48 48 44
0.037171941 0.078494206 0.066056073 92 90 82
0.039235715 0.079282656 0.066556066 90 88 81
0.0094444109 0.081124678 0.065056086 27 32 32
0.011100278 0.080990084 0.066306069 35 36 35
0.012761904 0.080908671 0.06705606 45 45 41
0.039274812 0.080175854 0.066056073 91 89 82
0.040615059 0.08196713 0.065056086 86 82 75
0.0069170613 0.08365202 0.065056086 26 34 35
0.0094444109 0.083230793 0.065056086 25 33 32
0.011106411 0.083118729 0.066056073 33 39 38
0.013041635 0.083146535 0.06705606 44 47 43
0.0094345864 0.08570008 0.065556079 25 34 34
0.011113502 0.086101137 0.065722741 24 34 33
0.01319458 0.086002737 0.066556066 26 33 32
0.011129311 0.088706717 0.065056086 22 33 32
0.01361445 0.088523038 0.066556066 28 34 32
0.011410128 0.090672433 0.065056086 23 34 32
0.013627797 0.090686142 0.066056073 23 31 28
0.016118692 0.090559438 0.06705606 29 32 29
0.013744198 0.093573779 0.065681078 22 33 31
0.016543737 0.093518965 0.066889398 24 31 29
0.017797086 0.094335824 0.06705606 28 34 32
0.014077887 0.096288763 0.065056086 23 34 32
0.016571764 0.096151501 0.066056073 24 32 29
0.018636284 0.096014224 0.06705606 30 35 33
0.014499112 0.098394893 0.065056086 24 35 33
0.016579928 0.098289087 0.065806076 23 34 30
0.018645262 0.09814775 0.066806063 28 35 33
0.014469706 0.10035561 0.066056073 25 36 34
