ply
format ascii 1.0
comment PCL generated
element vertex 1031
property float x
property float y
property float z
property uchar red
property uchar green
property uchar blue
element camera 0
property float view_px
property float view_py
property float view_pz
property float x_axisx
property float x_axisy
property float x_axisz
property float y_axisx
property float y_axisy
property float y_axisz
property float z_axisx
property float z_axisy
property float z_axisz
property float focal
property float scalex
property float scaley
property float centerx
property float centery
property int viewportx
property int viewporty
property float k1
property float k2
end_header
-0.19101514 -0.069820866 0.37899995 112 109 99
-0.18882769 -0.069820866 0.37899995 110 108 98
-0.18585069 -0.069821991 0.37866664 102 98 87
-0.18458015 -0.068946764 0.37849995 103 99 88
0.1286774 -0.069824249 0.37799996 125 117 93
0.13152637 -0.069605097 0.37799996 132 124 107
0.13393703 -0.069385946 0.37799996 137 130 114
0.13598244 -0.069532044 0.37799993 108 97 82
0.13832006 -0.069824249 0.37799996 138 131 121
-0.19810851 -0.066319376 0.37866664 164 155 144
-0.1967025 -0.066320956 0.37899995 131 123 113
-0.1942234 -0.066904277 0.37899995 118 114 103
-0.18414266 -0.065881908 0.37849995 106 102 91
-0.019519638 -0.067195937 0.37899995 109 108 108
-0.19741905 -0.063249722 0.37799996 125 121 114
-0.18251678 -0.063688025 0.37799996 107 105 93
-0.18151489 -0.063035384 0.37849998 78 77 68
-0.046351504 -0.063401699 0.37866664 87 66 51
-0.19741905 -0.061496519 0.37799996 125 121 112
-0.18051541 -0.061946072 0.37899995 76 74 66
-0.17932624 -0.061502956 0.37849995 84 82 72
-0.047519866 -0.061058216 0.37799996 87 63 47
-0.046643265 -0.061058216 0.37799996 87 63 47
-0.19732602 -0.05843487 0.3783333 128 125 112
-0.17681888 -0.050977275 0.37799996 63 70 77
-0.17439058 -0.050571371 0.37899995 50 49 58
-0.015962142 -0.050538976 0.37799996 107 108 102
-0.17614052 -0.049696393 0.37899995 62 77 92
-0.17450897 -0.048802778 0.37849995 69 87 98
-0.01601973 -0.048821416 0.37899995 89 92 89
-0.17462736 -0.047032565 0.37799996 89 113 125
-0.015085541 -0.027747285 0.37799996 84 85 79
-0.17287415 -0.025994081 0.37799996 67 64 59
-0.015085541 -0.026432382 0.37799996 88 89 82
-0.17287415 -0.023802571 0.37799996 76 75 68
-0.17275739 -0.022092398 0.37849995 64 66 60
-0.088720225 -0.022049364 0.37799996 140 182 205
-0.086967021 -0.022049364 0.37799996 231 255 255
-0.015085541 -0.022487666 0.37799996 78 78 74
-0.17264062 -0.019509686 0.37899995 55 59 52
-0.090473428 -0.01810465 0.37799996 101 106 113
-0.089246191 -0.019156571 0.37799996 165 182 193
-0.086090416 -0.01810465 0.37799993 107 119 121
-0.083460599 -0.018981252 0.37799996 102 139 156
-0.014269777 -0.019072197 0.37899995 85 84 84
-0.17199755 -0.011530124 0.37799996 70 67 57
-0.17264062 -0.0076974928 0.37899995 52 44 32
-0.17638057 -0.0058322027 0.37799996 51 45 32
-0.17375076 -0.0067088045 0.37799996 53 45 33
-0.065788068 -0.21685728 0.38199997 122 118 111
-0.047516007 -0.21511708 0.38199997 155 148 138
-0.046427079 -0.21619424 0.38124996 108 87 77
-0.062307674 -0.21250679 0.38199997 128 126 116
-0.047806684 -0.21297742 0.38133332 155 156 145
-0.046644587 -0.21392034 0.38 159 155 146
-0.062045712 -0.21161459 0.38099995 143 141 131
-0.047951542 -0.21133547 0.38150001 161 152 140
-0.067605004 -0.20955358 0.38 145 139 126
-0.066731654 -0.20868024 0.38 150 144 131
-0.062336288 -0.20885414 0.38099998 138 135 125
-0.047806364 -0.20882423 0.38166666 184 166 143
-0.046353694 -0.20801122 0.38033333 172 158 144
-0.063177772 -0.2064161 0.38199997 139 137 128
-0.062307674 -0.20728619 0.38199997 134 132 124
-0.047516007 -0.20728619 0.38199997 186 166 144
-0.046209715 -0.20567456 0.38149998 171 158 136
-0.066731654 -0.20387681 0.38 139 132 126
-0.063177772 -0.2038058 0.38199997 139 136 131
-0.046123393 -0.20403092 0.3818 167 153 135
-0.043735266 -0.20364718 0.38033333 141 132 121
-0.066731654 -0.20125675 0.38 150 142 130
-0.063208014 -0.20144448 0.38099998 131 132 123
-0.062336288 -0.20057274 0.38099998 129 130 119
-0.045775812 -0.20076045 0.38199997 169 157 139
-0.043590628 -0.20113268 0.38050002 134 126 111
-0.067605004 -0.19994673 0.38 147 139 127
-0.066731654 -0.19907337 0.38 138 129 119
-0.062364899 -0.19907337 0.38 122 122 111
-0.045775812 -0.19858521 0.38199997 125 114 103
-0.043596983 -0.19870725 0.38150001 144 134 117
-0.042277832 -0.19907337 0.38 150 141 123
-0.067566633 -0.19577827 0.38099998 118 111 102
-0.066694908 -0.19708586 0.38099998 124 117 107
-0.060567476 -0.19553988 0.38199997 135 132 123
-0.045993339 -0.1957574 0.38199997 184 176 160
-0.043592747 -0.19625346 0.38083336 178 169 154
-0.042277832 -0.19689 0.38 163 151 136
-0.067566633 -0.19359896 0.38099998 117 110 100
-0.046064317 -0.19323027 0.38133332 214 206 193
-0.044024535 -0.1933966 0.38 213 205 194
-0.067528263 -0.19249454 0.38199997 121 114 104
-0.062336288 -0.19011205 0.38099998 148 144 133
-0.059709247 -0.19086824 0.38149998 135 124 117
-0.047516007 -0.19205949 0.38199997 208 194 180
-0.046295777 -0.19137771 0.38080001 207 196 179
-0.061465647 -0.18923979 0.38099995 134 129 117
-0.059721112 -0.18880528 0.38099998 144 136 123
-0.04786424 -0.18888503 0.3818 198 186 169
-0.046426415 -0.18875498 0.38025001 200 191 172
-0.060567476 -0.18640384 0.38199997 135 125 112
-0.047951542 -0.1865145 0.38149998 208 194 178
-0.046644587 -0.18553644 0.38 208 195 182
-0.061016019 -0.18433681 0.38149998 126 120 111
-0.047951542 -0.18433723 0.38149998 188 178 165
-0.046644587 -0.18422642 0.38 214 201 188
-0.061689649 -0.18122937 0.38075 139 131 125
-0.059697382 -0.18031317 0.38199997 151 141 129
-0.050822385 -0.1806612 0.38199997 213 211 205
-0.047951538 -0.18128903 0.38149998 227 219 210
-0.046208132 -0.18153612 0.38033333 225 216 205
-0.040531132 -0.18073303 0.38 159 152 142
-0.063612819 -0.17857297 0.38199997 124 116 111
-0.062307674 -0.17944306 0.38199997 136 127 120
-0.058827281 -0.17828293 0.38199997 138 126 115
-0.055781938 -0.17770287 0.38199997 131 122 109
-0.053316664 -0.17828293 0.38199997 155 148 134
-0.050996404 -0.17857297 0.38199997 173 167 157
-0.047952186 -0.17872755 0.38124996 212 206 200
-0.046208814 -0.17883173 0.38075 223 219 211
-0.044024535 -0.17898631 0.38 215 211 203
-0.040531132 -0.17898631 0.38 155 147 139
-0.16919212 -0.17638779 0.38133332 88 83 69
-0.066277415 -0.17626536 0.38049999 121 114 107
-0.064047873 -0.17596267 0.38199997 161 147 139
-0.061446566 -0.17631996 0.38166666 179 168 154
-0.058827281 -0.17639773 0.38199997 179 174 161
-0.055781938 -0.17639773 0.38199997 162 159 145
-0.053827304 -0.17644817 0.38174999 155 148 134
-0.050998617 -0.17646497 0.38166666 139 124 115
-0.047952835 -0.17660032 0.38099998 184 178 172
-0.046209387 -0.17660032 0.38099998 211 207 204
-0.043587856 -0.17680293 0.38 215 210 204
-0.040543176 -0.17660034 0.38099998 160 148 138
-0.16895145 -0.17383665 0.38174999 92 90 75
-0.06618657 -0.17345339 0.38060004 120 112 103
-0.063638829 -0.1735162 0.38116667 175 159 143
-0.061895657 -0.1735162 0.38116667 196 181 165
-0.058844294 -0.17350517 0.38122222 152 141 128
-0.055801224 -0.17358184 0.38083336 153 136 120
-0.054054905 -0.17354929 0.38100001 148 129 112
-0.051003873 -0.17354928 0.38100001 176 156 142
-0.047952835 -0.17354929 0.38100001 202 193 182
-0.046209384 -0.17354929 0.38100001 227 219 208
-0.043591823 -0.17361522 0.38066664 224 214 202
-0.041407954 -0.17368059 0.38033333 163 150 140
-0.039657779 -0.17287287 0.38 141 133 130
-0.16932973 -0.17204723 0.38199997 90 89 74
-0.066149421 -0.17141728 0.38 149 137 124
-0.063667364 -0.17107774 0.38025001 152 135 122
-0.061921071 -0.17107774 0.38025001 150 135 120
-0.058871496 -0.17112617 0.38 165 148 132
-0.055669207 -0.17141728 0.38 162 144 126
-0.05406807 -0.17112616 0.38 188 172 154
-0.05100539 -0.17096587 0.38083336 194 178 164
-0.047952835 -0.17093411 0.38099998 213 203 189
-0.046354678 -0.1712247 0.38099995 213 205 191
-0.043594211 -0.17180584 0.38099998 216 204 193
-0.041414902 -0.17093411 0.38099998 152 143 138
-0.039376318 -0.1707081 0.38066664 140 134 130
-0.063238248 -0.16937947 0.38 143 128 116
-0.061928224 -0.16937947 0.38 156 138 127
-0.055378094 -0.16937947 0.38 196 184 164
-0.05406807 -0.16894279 0.38 191 178 162
-0.051006898 -0.16881748 0.38066664 222 210 197
-0.047952592 -0.16870801 0.38124996 203 197 183
-0.046210863 -0.16900188 0.38199997 197 194 182
-0.04360057 -0.16900189 0.38199997 185 181 171
-0.041425321 -0.16856682 0.38199997 154 151 143
-0.039242834 -0.16866124 0.38150001 137 132 128
-0.035758782 -0.16822538 0.38149998 162 159 145
-0.17043009 -0.16526711 0.38099998 92 88 78
-0.16955838 -0.16657549 0.38099998 79 75 66
-0.055378094 -0.16501272 0.38 210 199 190
-0.054155402 -0.16606073 0.38 217 205 194
-0.05100441 -0.1661399 0.38100001 210 199 186
-0.047951058 -0.16595653 0.38199997 199 191 180
-0.04664591 -0.16595653 0.38199997 209 204 195
-0.043600567 -0.16639158 0.38199997 209 203 194
-0.041425321 -0.16639158 0.38199997 147 144 136
-0.039250076 -0.16639158 0.38199997 142 140 132
-0.035624668 -0.16610155 0.38199997 118 118 112
-0.034452822 -0.1660485 0.38149998 102 100 93
0.11405193 -0.16501272 0.38 89 100 98
-0.055378094 -0.16413936 0.38 206 197 188
-0.053909618 -0.1642509 0.38099995 211 203 193
-0.051172238 -0.16433948 0.3818 208 201 187
-0.048386108 -0.16465139 0.38199997 215 209 196
-0.0335811 -0.16430627 0.38150001 106 107 100
0.11448861 -0.16413936 0.38 88 99 97
0.11579864 -0.16413936 0.38 85 98 97
-0.17194003 -0.161171 0.38199997 106 104 94
-0.05857328 -0.16117068 0.38033333 179 166 155
-0.055882405 -0.16148531 0.38119999 192 179 166
-0.053901386 -0.16180965 0.38166666 218 207 194
-0.051866498 -0.1620411 0.38199997 224 214 202
-0.033572204 -0.16131586 0.38116667 127 128 120
0.11230523 -0.16239265 0.38 97 105 104
0.11375203 -0.16221687 0.38099998 89 100 98
-0.17217356 -0.15829331 0.38099998 87 88 79
-0.063238248 -0.15802591 0.38 127 128 119
-0.061697207 -0.15837875 0.38049999 125 126 118
-0.059050739 -0.1583855 0.38174999 161 156 148
-0.033567756 -0.15829413 0.38099998 132 130 123
-0.21432793 -0.15671587 0.38 66 58 47
-0.17281011 -0.15595041 0.38199997 97 99 86
-0.17141697 -0.15663327 0.38050002 87 87 75
-0.063820481 -0.15686142 0.38 119 117 108
-0.061459035 -0.15650916 0.38124999 118 117 112
-0.059697382 -0.15682051 0.38199997 136 137 133
-0.0335811 -0.15646806 0.38149998 131 128 122
-0.21782133 -0.15409583 0.38 76 77 70
-0.21432793 -0.15365915 0.38 77 77 67
-0.17281011 -0.15377516 0.38199997 92 93 80
-0.17141695 -0.1535794 0.38049999 90 89 78
-0.16978703 -0.15453249 0.38 84 80 69
-0.060567476 -0.15377516 0.38199997 96 95 90
-0.033139378 -0.15367728 0.38124996 131 130 121
-0.21432793 -0.15103909 0.38 88 89 80
-0.17281011 -0.15203497 0.38199997 88 90 79
-0.17147535 -0.15100002 0.38024998 81 80 71
-0.060567476 -0.15203497 0.38199997 92 88 83
-0.032697659 -0.15088445 0.38099998 134 130 120
-0.21956801 -0.14841905 0.38 97 98 89
-0.21432793 -0.14885572 0.38 91 89 81
-0.17296688 -0.14909001 0.38133332 78 83 73
-0.17240709 -0.14885572 0.38 72 79 67
-0.06056748 -0.14898963 0.38199997 98 93 90
-0.032724343 -0.14855458 0.38199997 134 130 121
-0.21766227 -0.14616323 0.38049999 101 102 93
-0.21635348 -0.14616323 0.38050002 103 104 95
-0.21372575 -0.14623526 0.38099995 103 103 97
-0.17341371 -0.14599353 0.38066664 74 77 67
-0.17043011 -0.14565411 0.38099998 73 66 56
-0.061029512 -0.14608917 0.38099998 103 94 90
-0.059697382 -0.14550924 0.38199997 121 110 105
-0.21842074 -0.14437672 0.38139996 100 101 93
-0.21619564 -0.14434654 0.38099998 105 106 98
-0.17368022 -0.14420408 0.38199997 77 79 70
-0.17031497 -0.14427572 0.38149998 69 63 51
-0.061491549 -0.14448896 0.38 110 99 92
-0.059279725 -0.14431071 0.38124996 114 99 90
-0.21924666 -0.14216721 0.38099998 96 97 93
-0.21690831 -0.14209802 0.38149998 100 101 97
-0.17383806 -0.14124937 0.38133332 81 82 71
-0.061491549 -0.14230558 0.38 174 166 152
-0.058688633 -0.1419009 0.3804 162 152 134
-0.055794455 -0.14169635 0.38124999 160 148 131
-0.054054905 -0.14129549 0.38099998 168 154 139
-0.05100387 -0.14129549 0.38099995 173 159 144
-0.047953479 -0.14089301 0.38074997 159 141 126
-0.046354894 -0.14066876 0.38133332 176 162 147
-0.044035617 -0.14028865 0.38199997 179 167 151
-0.17370482 -0.13843369 0.38066664 81 82 71
-0.046063114 -0.1384771 0.38033333 176 162 149
-0.043594621 -0.13824405 0.38099998 178 167 151
-0.042295419 -0.13767835 0.38199997 183 171 155
-0.045771237 -0.13706549 0.38 186 171 159
-0.043589652 -0.13659665 0.38024998 183 169 153
-0.041423123 -0.13640496 0.38174999 202 188 171
-0.03095421 -0.13606516 0.38099998 120 118 110
-0.046062354 -0.13298984 0.38 130 122 112
-0.043591172 -0.13351157 0.38049999 161 142 125
-0.041423123 -0.13379386 0.38174999 175 156 135
-0.03095421 -0.13344997 0.38099995 125 123 113
-0.050574664 -0.13051535 0.38 114 110 104
-0.047954127 -0.13089341 0.38049999 135 131 122
-0.046210531 -0.1307762 0.38149998 134 127 119
-0.042295419 -0.13245776 0.38199997 178 158 138
-0.030984147 -0.13071758 0.38199997 122 123 114
-0.22327581 -0.12810728 0.38199997 129 127 117
-0.17629051 -0.12854233 0.38199997 97 95 85
-0.17478871 -0.12909135 0.38099995 88 85 71
-0.053631391 -0.12833197 0.38 72 72 68
-0.051004522 -0.12909135 0.38099998 108 106 98
-0.048386108 -0.12984747 0.38199997 127 125 115
-0.030974166 -0.12901483 0.38166666 124 125 118
-0.22393477 -0.12658527 0.38 109 110 101
-0.1780307 -0.12549698 0.38199997 105 103 93
-0.1766572 -0.12610599 0.38119999 100 94 78
-0.05362067 -0.12603951 0.38099998 52 52 51
-0.051871046 -0.12598658 0.38149998 83 85 76
-0.030510051 -0.12606759 0.38074997 129 126 120
-0.17861076 -0.12346675 0.38199997 99 98 87
-0.17708889 -0.12391312 0.38050002 99 93 77
-0.051579494 -0.12350094 0.38166666 64 65 60
-0.030673072 -0.12411737 0.38133332 130 127 122
-0.028304223 -0.12483858 0.38 125 122 117
-0.2201184 -0.12124583 0.38099998 117 118 107
-0.21807709 -0.12078514 0.38124996 121 123 117
-0.21603821 -0.12032525 0.38149998 128 132 126
-0.17886169 -0.12123141 0.38114282 99 94 80
-0.1774039 -0.12211756 0.38099998 98 91 74
-0.051011339 -0.12221852 0.38 90 87 84
-0.21611732 -0.11817118 0.38124996 124 126 116
-0.18039207 -0.11817118 0.38124996 104 97 83
-0.17852053 -0.11785176 0.38 107 94 72
-0.05100387 -0.11863066 0.38099998 50 41 44
-0.028304223 -0.11828844 0.38 120 120 115
-0.21607462 -0.11697842 0.38 122 124 115
-0.21370474 -0.116796 0.38199997 123 125 116
-0.1808908 -0.11601549 0.38099998 105 98 80
-0.028339038 -0.11601549 0.38099998 117 117 112
-0.18128881 -0.11359127 0.38079998 103 94 78
-0.028339038 -0.11427204 0.38099998 123 124 118
-0.027467314 -0.11340031 0.38099998 132 133 127
-0.18163681 -0.11161533 0.38149998 104 96 80
-0.18337782 -0.10943927 0.38149998 88 84 68
0.11113685 -0.10904169 0.38099995 98 91 82
0.11345211 -0.10896512 0.38199997 81 74 68
-0.1843777 -0.10555479 0.38099998 95 92 78
0.11084769 -0.10646236 0.38049999 75 61 51
0.11345213 -0.10635483 0.38199997 87 72 61
-0.18337782 -0.10377713 0.38149998 116 110 93
0.1108477 -0.10384475 0.38049999 76 65 58
0.11345211 -0.10374454 0.38199997 90 84 78
-0.18263423 -0.10163204 0.38099998 157 146 128
-0.02568417 -0.10213146 0.38 137 133 126
-0.023937469 -0.10125811 0.38 123 119 112
0.1108477 -0.10166341 0.38050002 74 68 67
0.11345211 -0.10156929 0.38199997 93 115 124
-0.1830097 -0.098599471 0.38066664 163 154 132
-0.023937469 -0.098638058 0.38 125 121 114
0.11084769 -0.098609529 0.38049999 103 115 117
0.11345212 -0.098772533 0.38199997 98 123 136
0.1273737 -0.097653851 0.38199997 99 109 123
-0.18524942 -0.0950941 0.38099998 176 168 154
-0.1843777 -0.095964201 0.38099998 173 167 146
-0.023937469 -0.096018001 0.38 117 116 108
0.12666574 -0.095938921 0.38149998 102 144 165
0.12857135 -0.095965825 0.38099998 127 159 175
0.1306456 -0.095144652 0.38 139 176 193
-0.18797942 -0.093609154 0.38166666 164 155 140
-0.18581425 -0.094246842 0.38049999 176 168 154
-0.023937469 -0.093834624 0.38 110 111 102
0.1195428 -0.09330336 0.38199997 110 142 153
0.12623069 -0.093762465 0.38149998 116 162 184
0.1288989 -0.093834624 0.38 143 179 196
0.1306456 -0.093834624 0.38 152 187 201
-0.19021207 -0.090693064 0.38199997 176 169 152
-0.18922877 -0.091301948 0.38133332 178 170 154
-0.17827561 -0.091607206 0.38099998 62 43 26
-0.1774039 -0.091607206 0.38099998 61 42 27
-0.024256133 -0.09104073 0.38066664 122 119 111
0.11916918 -0.091301411 0.38133332 112 136 148
0.1213784 -0.091170534 0.38099998 108 142 161
0.12347826 -0.091159925 0.38124996 107 150 173
0.12632477 -0.091109946 0.3804 115 161 183
0.1288989 -0.091214575 0.38 145 182 199
-0.19185427 -0.089437686 0.38075 175 169 156
-0.18987411 -0.089467868 0.38 181 174 160
-0.024415465 -0.089427896 0.38099998 127 124 114
0.11929204 -0.089467868 0.38 119 141 154
0.12103874 -0.089467868 0.38 111 137 153
0.12322212 -0.089467868 0.38 106 143 167
0.12627883 -0.089467876 0.38 111 153 174
0.12802556 -0.089904547 0.38 130 169 187
-0.19323123 -0.085957326 0.38049999 181 175 160
-0.19220808 -0.08662051 0.38025001 182 176 162
-0.024187205 -0.086603366 0.38075 123 122 110
0.11929204 -0.087284498 0.38 92 112 127
0.12119817 -0.086277053 0.38028574 68 77 87
0.12318233 -0.086572431 0.3804 63 79 88
0.12624317 -0.08640752 0.3801111 67 66 64
0.12860779 -0.085828908 0.38 115 103 85
0.134139 -0.085537791 0.38 135 111 86
0.13501236 -0.085537791 0.38 127 101 72
-0.19543266 -0.082862183 0.38199997 183 179 168
-0.19359854 -0.083332762 0.38074997 179 176 163
-0.024001889 -0.08331193 0.38149998 115 111 101
0.11918828 -0.082908481 0.38033333 71 69 58
0.1216598 -0.083418883 0.38080001 77 73 59
0.123341 -0.083325818 0.38099998 73 66 55
0.12595616 -0.083325826 0.38100001 76 68 59
0.12873513 -0.083340526 0.38049999 104 89 74
0.13091648 -0.083340526 0.38049999 118 100 79
0.13397035 -0.083340526 0.38049999 141 122 95
0.13544904 -0.083354421 0.38 137 106 82
0.1376324 -0.083354414 0.38 131 101 74
-0.19635102 -0.081489965 0.38119999 182 180 168
-0.19424087 -0.081607714 0.38 178 174 162
-0.023703614 -0.081428371 0.38133332 108 104 100
0.11492529 -0.081171036 0.38 48 37 30
0.11579864 -0.081607714 0.38 51 44 37
0.11918827 -0.081599273 0.38033333 70 66 55
0.12203341 -0.081582375 0.38099998 80 74 58
0.123341 -0.081582375 0.38099998 75 68 54
0.12595618 -0.081582375 0.38100001 80 71 60
0.12857135 -0.081582375 0.38099998 98 84 73
0.13075066 -0.081582375 0.38099998 104 86 73
0.13423756 -0.081582375 0.38099998 153 132 104
0.13588572 -0.081607714 0.38 131 104 77
0.13806908 -0.081607714 0.38 133 103 78
-0.20006874 -0.07853134 0.38099998 188 186 174
-0.19808888 -0.078363881 0.38059998 189 187 175
-0.19657128 -0.078672715 0.3801429 185 183 171
-0.19424087 -0.079424337 0.38 185 181 170
-0.023138406 -0.078518786 0.38166666 103 98 96
0.11492529 -0.078550987 0.38 58 41 27
0.11579864 -0.078550987 0.38 58 44 32
0.11899804 -0.078672715 0.3801429 64 55 46
0.1215273 -0.078542106 0.38042858 74 67 54
0.12328156 -0.078322418 0.38049999 74 66 52
0.12606372 -0.078537345 0.38066667 89 82 68
0.12868053 -0.078537352 0.38066664 134 118 89
0.13086121 -0.078537345 0.38066664 143 121 90
0.13364637 -0.07854744 0.38016668 150 129 102
0.13544905 -0.078550987 0.38 149 130 103
0.13785073 -0.078769326 0.38 136 114 87
-0.19773427 -0.07549426 0.38 191 187 177
-0.1965698 -0.075639822 0.38 194 191 178
0.11579864 -0.075930938 0.38 93 79 64
0.11885536 -0.07549426 0.38 59 51 41
0.12103874 -0.07549426 0.38 70 63 52
0.12322212 -0.07549426 0.38 72 67 54
0.12645352 -0.075581595 0.38 115 108 92
0.1288989 -0.07549426 0.38 139 124 96
0.13108228 -0.07549426 0.38 143 125 98
0.13384788 -0.075639822 0.38 135 117 91
0.13544904 -0.07549426 0.38 148 136 111
0.1376324 -0.075930938 0.38 135 120 94
-0.19773427 -0.073310882 0.38 199 192 184
-0.022213867 -0.073742613 0.38049999 109 109 102
0.1288989 -0.074184231 0.38 131 124 96
0.13108228 -0.074184231 0.38 134 124 99
0.134139 -0.074184231 0.38 128 115 91
-0.022283167 -0.071115859 0.38199997 110 108 100
-0.1916208 -0.068944134 0.38 115 111 102
-0.18900077 -0.068944134 0.38 112 108 99
-0.18594404 -0.068944134 0.38 107 103 92
-0.020493519 -0.068942375 0.38099998 115 115 111
-0.19365864 -0.065741844 0.38 117 113 104
-0.19158737 -0.066326976 0.38066664 117 113 103
-0.18888855 -0.066981778 0.38124999 113 109 100
-0.1855555 -0.06719967 0.38149998 112 108 97
-0.18406917 -0.067198172 0.38049999 107 103 92
-0.19598755 -0.06326735 0.38 128 124 117
-0.19353122 -0.063276574 0.38099998 120 116 109
-0.19195229 -0.063720025 0.38199997 120 116 109
-0.045771237 -0.062830672 0.38 89 68 53
-0.19557139 -0.061539154 0.38149998 128 124 115
-0.19369248 -0.06197983 0.38199997 121 117 108
-0.18097353 -0.061673712 0.38066664 82 80 72
-0.045774668 -0.061539154 0.38149998 89 65 49
-0.042295419 -0.061109733 0.38199997 83 76 68
-0.18001908 -0.059353404 0.38099998 86 84 74
-0.17882474 -0.058318637 0.38159999 88 86 76
-0.1774039 -0.057609957 0.38099998 75 76 67
-0.04664591 -0.059369534 0.38199997 85 64 47
-0.042286627 -0.058917541 0.38099998 90 80 72
-0.018697364 -0.05759057 0.38 96 93 90
-0.17919083 -0.055599112 0.38199997 91 87 79
-0.1768472 -0.055877827 0.38149998 73 73 69
-0.018802775 -0.055889145 0.38199997 92 89 84
-0.17841378 -0.054011054 0.38087499 80 79 76
-0.043151185 -0.053223819 0.38 82 64 53
-0.016134895 -0.054123059 0.38099998 110 108 98
-0.17856459 -0.05107202 0.38100001 64 73 82
-0.17677385 -0.050603766 0.38 63 74 85
-0.043151185 -0.051477119 0.38 86 68 57
-0.17896202 -0.048919857 0.38174999 67 100 118
-0.1768512 -0.048696652 0.3804 81 105 118
-0.17890081 -0.046753116 0.38199997 85 121 144
-0.17669274 -0.046686929 0.38033333 93 120 132
-0.016173286 -0.046305101 0.38166666 73 78 77
-0.016106103 -0.043202989 0.38049999 82 82 77
-0.016077312 -0.040996909 0.38 90 86 80
-0.016077312 -0.039250206 0.38 80 77 72
-0.016192481 -0.034136694 0.38199997 76 76 78
-0.016077312 -0.031826727 0.38 80 80 81
-0.17368022 -0.028046008 0.38199997 87 88 82
-0.01642493 -0.029133627 0.38099995 85 88 86
-0.17336275 -0.026702303 0.38150001 80 80 74
-0.016192481 -0.026740862 0.38199997 92 93 89
-0.17336273 -0.023654113 0.38149998 76 79 72
-0.17050688 -0.023585645 0.38066664 33 32 23
-0.016192481 -0.023695517 0.38199997 80 80 76
-0.17336273 -0.021041378 0.38149998 60 61 55
-0.17043011 -0.020997534 0.38099998 35 36 27
-0.015322383 -0.021955322 0.38199997 84 81 78
-0.17336273 -0.018864099 0.38149998 59 60 54
-0.014330611 -0.01828979 0.38 83 83 83
-0.014452286 -0.016734734 0.38199997 83 83 79
-0.17281011 -0.014124438 0.38199997 67 68 62
-0.042295419 -0.014124438 0.38199997 75 71 72
-0.17296688 -0.011444301 0.38133332 73 74 63
-0.17240709 -0.011302986 0.38 73 70 59
-0.040543176 -0.012280289 0.38099998 82 70 54
-0.17310016 -0.0083237858 0.38199997 52 46 35
-0.17240709 -0.0086829364 0.38 51 45 32
-0.17783895 -0.0061782207 0.38099998 43 38 27
-0.17677385 -0.0060628839 0.38 49 42 32
-0.17368022 -0.007163655 0.38199997 53 45 33
-0.052715153 -0.21586737 0.38399994 150 146 139
-0.050981462 -0.21586739 0.38399994 163 159 152
-0.04794798 -0.21600609 0.38349992 138 129 117
-0.063117296 -0.21456711 0.38399994 143 136 126
-0.06168209 -0.21407978 0.3836666 141 138 127
-0.059368879 -0.21350189 0.3836666 130 127 117
-0.055315688 -0.21283342 0.38399994 158 153 149
-0.053581998 -0.21370026 0.38399994 151 147 142
-0.050981462 -0.21370028 0.38399994 157 153 147
-0.048383515 -0.21397361 0.38299996 164 161 152
-0.060542118 -0.21049973 0.38299996 158 154 143
-0.058783069 -0.21120808 0.38399994 140 134 127
-0.055749111 -0.21196657 0.38399994 158 151 148
-0.053581998 -0.21109973 0.38399994 153 145 138
-0.05098341 -0.21118921 0.38366657 153 146 136
-0.060542118 -0.20832855 0.38299996 154 152 140
-0.059649915 -0.20806578 0.38399994 145 144 131
-0.053581998 -0.20806578 0.38399994 185 168 144
-0.05098341 -0.20815337 0.3836666 186 168 143
-0.048383515 -0.20789431 0.38299996 186 167 142
-0.061104193 -0.20569541 0.3836666 141 140 132
-0.059649915 -0.2067655 0.38399994 134 132 124
-0.052715153 -0.2067655 0.38399994 192 172 150
-0.050981462 -0.20589866 0.38399994 194 175 154
-0.048094023 -0.20586789 0.38299999 188 169 147
-0.06314753 -0.20355195 0.38299996 138 135 129
-0.061390758 -0.2037954 0.38374993 144 142 135
-0.050808094 -0.20381823 0.38399994 170 159 143
-0.047861911 -0.20367488 0.38319993 168 154 137
-0.046646573 -0.20268348 0.38299996 172 158 141
-0.061390758 -0.20162667 0.38374993 134 132 124
-0.050548039 -0.20156443 0.38399994 133 128 120
-0.04794798 -0.20103838 0.38349992 144 132 120
-0.046646573 -0.2005123 0.38299996 162 150 132
-0.060529441 -0.19952017 0.38349995 136 130 122
-0.050114617 -0.19939733 0.38399994 122 110 105
-0.048092294 -0.19933474 0.3836666 132 117 109
-0.046646573 -0.1992096 0.38299996 156 143 130
-0.060542118 -0.19703841 0.38299996 118 113 105
-0.059649915 -0.19549651 0.38399994 128 126 116
-0.050114617 -0.19636337 0.38399994 174 166 152
-0.047947984 -0.19648378 0.38349995 172 166 151
-0.046646576 -0.19660418 0.38299999 156 148 134
-0.060542118 -0.1931303 0.38299996 143 136 128
-0.058783069 -0.19376284 0.38399994 142 136 127
-0.050808094 -0.19358945 0.38399994 184 170 156
-0.047948629 -0.19393939 0.38324994 198 189 173
-0.060542118 -0.19182758 0.38299996 141 132 124
-0.058609702 -0.19168238 0.38399994 141 133 123
-0.052715153 -0.19116229 0.38399994 143 129 114
-0.050982434 -0.19163422 0.38383329 177 162 153
-0.048383515 -0.19182758 0.38299996 194 180 166
-0.05834965 -0.18856175 0.38399994 167 157 141
-0.055749111 -0.18812832 0.38399994 186 167 147
-0.053581998 -0.18856175 0.38399994 201 183 162
-0.050984245 -0.18866211 0.38355547 165 149 133
-0.048383515 -0.18965641 0.38299996 193 181 163
-0.1836088 -0.18596122 0.38399994 138 134 121
-0.058790978 -0.18603499 0.3836666 162 146 131
-0.055749111 -0.18596122 0.38399994 190 170 151
-0.053581998 -0.18596122 0.38399994 203 190 173
-0.050985903 -0.18610875 0.3833333 188 176 162
-0.058787022 -0.18383019 0.38383329 164 143 128
-0.055749111 -0.18379411 0.38399994 178 158 139
-0.05358468 -0.18384822 0.38374996 161 146 134
-0.050988931 -0.18401134 0.38299993 185 175 166
-0.058685966 -0.18097407 0.38349992 179 155 139
-0.055754583 -0.18083012 0.3836666 177 157 137
-0.053592015 -0.18093616 0.38316658 167 154 141
-0.051206049 -0.18162306 0.38299996 187 182 180
-0.18447563 -0.17989329 0.38399994 133 129 118
-0.060542118 -0.17923474 0.38299996 147 137 125
-0.05837094 -0.17923474 0.38299996 179 158 143
-0.055765525 -0.17923474 0.38299996 164 150 132
-0.054462817 -0.17923474 0.38299996 189 180 161
-0.16981602 -0.17649372 0.3836666 98 92 80
-0.063364647 -0.17662933 0.38299996 146 133 127
-0.06170008 -0.1772083 0.38299999 139 125 114
-0.059673645 -0.1774978 0.38299996 132 119 108
-0.16973926 -0.17339195 0.38399994 100 99 84
-0.16973926 -0.17165826 0.38399994 99 98 83
-0.16942017 -0.1687187 0.38349995 87 84 74
-0.04490963 -0.16794461 0.38299996 202 200 190
-0.037111938 -0.16819088 0.38399994 146 144 136
-0.17060611 -0.16559035 0.38399994 102 97 87
-0.16996954 -0.16620767 0.38299996 91 87 78
-0.044258274 -0.16555631 0.38299996 208 202 192
-0.041435741 -0.1653392 0.38299996 139 137 129
-0.03926456 -0.1653392 0.38299996 140 140 134
-0.036810081 -0.16556738 0.3833333 131 130 123
-0.1715508 -0.16377185 0.3836666 107 105 96
-0.050120458 -0.16360226 0.38299996 222 214 200
-0.047804534 -0.16389175 0.38299999 216 210 196
-0.046646573 -0.1640365 0.38299996 209 202 192
-0.044041157 -0.1640365 0.38299993 204 199 187
-0.041435741 -0.1640365 0.38299996 139 138 130
-0.03926456 -0.1640365 0.38299996 141 141 135
-0.036224913 -0.1640365 0.38299993 131 131 124
-0.17320666 -0.16082269 0.38399994 103 101 93
-0.1723398 -0.16125612 0.38399994 105 103 95
-0.05533129 -0.16012838 0.38299996 194 181 168
-0.053304851 -0.16041787 0.38299999 219 209 197
-0.050988931 -0.16099684 0.38299993 224 215 206
-0.047949281 -0.16143109 0.38299996 224 217 206
-0.046646573 -0.16143109 0.38299996 219 212 202
-0.044043928 -0.16134401 0.38349995 198 192 184
-0.041437943 -0.16138755 0.38324994 146 142 137
-0.039177712 -0.16117054 0.38299996 137 133 127
-0.036224913 -0.16099685 0.38299993 133 133 125
-0.17320666 -0.15908901 0.38399994 107 109 99
-0.1723398 -0.15908901 0.38399994 97 98 88
-0.05837094 -0.15752296 0.38299996 160 151 144
-0.055910271 -0.15810193 0.38299999 189 177 165
-0.053588986 -0.15830681 0.38349995 200 192 182
-0.050764751 -0.15865558 0.38399994 218 215 211
-0.047947504 -0.15908901 0.38399994 221 218 210
-0.046647236 -0.15908901 0.38399994 219 216 208
-0.0440467 -0.15908901 0.38399994 187 183 175
-0.041446164 -0.15908901 0.38399994 145 140 135
-0.039423525 -0.15880007 0.38399994 135 133 125
-0.036051221 -0.15804404 0.38299996 135 133 125
-0.19401094 -0.15605505 0.38399994 149 147 137
-0.17320664 -0.15648846 0.38399994 111 113 102
-0.1723398 -0.15692189 0.38399994 108 110 100
-0.058623284 -0.15606733 0.3833999 136 130 126
-0.055662431 -0.1563151 0.38399994 186 174 159
-0.053581998 -0.15648848 0.38399994 201 190 179
-0.050981462 -0.15692189 0.38399994 216 214 207
-0.047947504 -0.15692189 0.38399994 218 216 211
-0.046647236 -0.15692189 0.38399994 214 212 204
-0.0440467 -0.15692189 0.38399994 176 173 165
-0.041012742 -0.15670517 0.38399994 141 139 132
-0.039279051 -0.15648846 0.38399994 133 130 124
-0.0363627 -0.156288 0.3837142 139 136 128
-0.17320666 -0.15345451 0.38399994 100 101 88
-0.058787029 -0.15348138 0.38383326 135 128 119
-0.055749111 -0.15345451 0.38399994 183 169 153
-0.040579319 -0.15345451 0.38399994 151 146 135
-0.039279051 -0.15345451 0.38399994 137 133 124
-0.036237825 -0.15350796 0.3836666 142 139 131
-0.03448797 -0.1531806 0.38299996 138 136 128
-0.17344344 -0.15187789 0.38299996 95 97 86
-0.059216492 -0.15128739 0.38399994 133 126 118
-0.039279051 -0.15215424 0.38399994 132 128 121
-0.036245093 -0.15128738 0.38399994 145 141 133
-0.03448797 -0.15187789 0.38299996 141 138 129
-0.17375846 -0.14876257 0.38349995 84 88 80
-0.059303176 -0.14851351 0.38399994 151 144 139
-0.035594959 -0.14890358 0.38399994 142 137 128
-0.034495782 -0.14878833 0.3833333 136 132 123
-0.19141039 -0.14565291 0.38399994 117 113 105
-0.17375846 -0.14615959 0.38349995 77 82 72
-0.058618866 -0.14579788 0.38359994 139 127 121
-0.055749111 -0.14565291 0.38399994 142 130 120
-0.053581998 -0.14565291 0.38399994 143 131 119
-0.050981462 -0.14521948 0.38399994 116 102 95
-0.035378247 -0.14608634 0.38399994 146 136 124
-0.033637885 -0.14568952 0.38374993 139 133 122
-0.21947244 -0.14362741 0.38299996 100 101 95
-0.19141039 -0.14391921 0.38399994 119 115 106
-0.057936702 -0.14406164 0.38299996 113 99 89
-0.055757318 -0.14399002 0.38349992 115 101 89
-0.053581998 -0.14391921 0.38399994 114 98 86
-0.050981462 -0.14391921 0.38399994 119 101 90
-0.048091978 -0.14377473 0.38399994 128 109 99
-0.046647236 -0.14348578 0.38399994 152 133 120
-0.044913545 -0.14348578 0.38399994 148 133 121
-0.032777712 -0.14435264 0.38399994 141 137 126
-0.22034091 -0.141022 0.38299999 108 109 105
-0.21895744 -0.14098822 0.38324994 101 102 98
-0.21714137 -0.1405202 0.38349995 101 102 97
-0.1740735 -0.14088525 0.38399994 80 82 74
-0.053594343 -0.14189047 0.38299996 156 141 126
-0.050988931 -0.14189047 0.38299999 155 141 126
-0.047949277 -0.14189047 0.38299996 149 130 117
-0.046646573 -0.14189047 0.38299996 165 146 133
-0.043920491 -0.14119129 0.38357136 179 167 152
-0.041446164 -0.14045183 0.38399994 189 180 165
-0.039712474 -0.1400184 0.38399994 187 179 167
-0.17407349 -0.13828471 0.38399994 76 78 69
-0.041150268 -0.13808315 0.3833333 195 181 169
-0.039712474 -0.13828471 0.38399994 211 201 189
-0.031882554 -0.13754812 0.38299996 125 122 117
-0.1740735 -0.13655104 0.38399994 77 78 68
-0.039276771 -0.1365722 0.38383326 213 203 189
-0.032777712 -0.13698445 0.38399994 127 123 119
-0.031882554 -0.13624541 0.38299996 123 118 115
-0.039414406 -0.13374348 0.3833333 160 140 121
-0.031882554 -0.13363999 0.38299996 123 115 111
-0.21221468 -0.13048312 0.38399994 170 160 148
-0.043606922 -0.13060033 0.38299996 125 109 97
-0.04144014 -0.1314102 0.38349995 155 138 119
-0.032777712 -0.13048312 0.38399994 129 131 120
-0.031882554 -0.1314688 0.38299996 130 129 119
-0.22088313 -0.12788257 0.38399994 123 124 115
-0.21568206 -0.12874943 0.38399994 185 183 171
-0.21308154 -0.12874942 0.38399994 168 162 151
-0.21183264 -0.12876813 0.38383326 163 157 147
-0.20884883 -0.12878706 0.38366657 178 171 161
-0.20658019 -0.12896612 0.38399994 189 182 169
-0.1779366 -0.12859853 0.38379994 102 99 90
-0.17691731 -0.12842916 0.38299996 101 99 89
-0.050988931 -0.12799492 0.38299996 113 109 102
-0.047947984 -0.12924065 0.38349995 130 128 119
-0.046647236 -0.12961626 0.38399994 153 144 135
-0.032777712 -0.12874942 0.38399994 125 129 121
-0.031882554 -0.12886339 0.38299999 124 128 120
-0.22088313 -0.12571546 0.38399994 118 118 113
-0.21637554 -0.12562878 0.38399994 138 135 131
-0.21337573 -0.12552562 0.38374993 124 121 116
-0.21184234 -0.12593213 0.3833333 120 119 112
-0.20905077 -0.12582375 0.38299993 120 120 113
-0.20701361 -0.12571546 0.38399994 113 113 107
-0.18043037 -0.125571 0.38399994 106 104 95
-0.17820041 -0.1258963 0.3836666 104 102 92
-0.050988931 -0.12582375 0.38299996 104 106 97
-0.032777712 -0.12571546 0.38399994 137 135 128
-0.031882554 -0.12582375 0.38299996 131 129 122
-0.22041345 -0.1238715 0.3836666 117 118 111
-0.21867812 -0.1232936 0.3836666 128 129 124
-0.21611035 -0.12373127 0.38342851 138 138 131
-0.21295889 -0.12365256 0.38299996 122 121 114
-0.21165618 -0.12365256 0.38299996 120 121 112
-0.20905077 -0.12365256 0.38299993 119 121 113
-0.20701361 -0.12354835 0.38399994 117 119 110
-0.18069971 -0.12360045 0.38349995 105 104 95
-0.17840773 -0.1244152 0.38399994 107 105 95
-0.050988931 -0.12452104 0.38299996 82 83 77
-0.032777712 -0.1244152 0.38399994 146 146 140
-0.03189671 -0.12360127 0.38349995 139 139 133
-0.029277138 -0.12278409 0.38299996 133 130 125
-0.22034091 -0.12191562 0.38299996 117 119 110
-0.21860395 -0.12191562 0.38299996 120 123 116
-0.21582484 -0.12156824 0.38299996 132 135 130
-0.21295887 -0.12104716 0.38299993 128 130 122
-0.21165617 -0.12104716 0.38299999 125 124 116
-0.20896988 -0.12109382 0.38362491 119 116 110
-0.20701361 -0.12181466 0.38399994 130 126 117
-0.18069971 -0.12099748 0.38349995 106 105 93
-0.031372797 -0.12118079 0.3833999 136 134 129
-0.029277138 -0.12104716 0.38299999 133 131 124
-0.21310364 -0.11815225 0.38299999 128 130 121
-0.21134785 -0.11834727 0.38399994 129 131 122
-0.20961416 -0.11834727 0.38399994 121 122 116
-0.18113396 -0.11796027 0.38349995 108 109 98
-0.031044019 -0.11834727 0.38399994 135 136 130
-0.029277138 -0.1180075 0.38299996 129 129 124
-0.21252465 -0.11670479 0.38299996 135 137 128
-0.21178126 -0.11748043 0.38399994 131 133 124
-0.20816942 -0.11690253 0.38399994 120 121 112
-0.20701361 -0.11661358 0.38399994 120 121 112
-0.18125966 -0.11670479 0.38299996 111 109 97
-0.031044019 -0.117047 0.38399994 130 131 125
-0.029277138 -0.11670479 0.38299996 126 126 122
-0.20845835 -0.11459094 0.38399994 125 126 117
-0.18172124 -0.11425175 0.38374993 104 99 86
-0.029010318 -0.11404236 0.3836666 126 127 121
-0.1836088 -0.11054567 0.38399994 93 95 82
-0.18212816 -0.11149396 0.38299996 100 91 76
-0.027576638 -0.11227936 0.38399994 134 134 128
0.11488915 -0.11062549 0.38299996 82 82 78
0.11690631 -0.11145324 0.38349992 90 90 84
0.11892021 -0.11054567 0.38399994 86 76 70
0.12152075 -0.11097909 0.38399994 123 108 93
0.12412129 -0.11054567 0.38399994 121 101 81
-0.18417037 -0.1092845 0.38349995 95 99 84
-0.18187511 -0.10881197 0.38399994 99 90 71
0.11445492 -0.10932279 0.38299996 87 82 76
0.11706033 -0.10932279 0.38299996 129 120 111
0.11892021 -0.1092454 0.38399994 92 83 76
0.12152075 -0.10924539 0.38399994 123 106 92
0.12455471 -0.1092454 0.38399994 124 100 82
0.12585497 -0.10881197 0.38399994 115 86 74
-0.18204381 -0.10625869 0.3833333 114 108 89
0.11488915 -0.10628314 0.38299999 89 80 72
0.11706033 -0.10628314 0.38299993 121 112 106
0.11902344 -0.10623506 0.3836666 106 99 100
0.12152074 -0.10621144 0.38399994 115 106 109
0.1245547 -0.10621145 0.38399994 138 143 147
0.12585497 -0.10621145 0.38399994 130 140 146
0.12758866 -0.10534459 0.38399994 129 164 179
-0.1836088 -0.10274406 0.38399994 118 116 97
-0.18212816 -0.10454619 0.38299996 121 116 94
0.11488915 -0.10367772 0.38299996 69 75 81
0.11706033 -0.10367772 0.38299996 93 111 123
0.11892021 -0.1036109 0.38399994 101 132 147
0.12152076 -0.10378428 0.38399994 121 153 172
0.12469918 -0.10389986 0.38399994 144 180 195
0.12585497 -0.10274406 0.38399994 152 190 204
0.12758866 -0.1036109 0.38399994 133 168 184
-0.1836088 -0.10144379 0.38399994 126 119 101
-0.024934782 -0.10107231 0.38299996 132 128 121
0.11488915 -0.10150655 0.38299996 94 137 153
0.11690631 -0.10147516 0.38349995 95 141 162
0.11805337 -0.10187721 0.38399994 96 145 169
0.12585497 -0.10187721 0.38399994 155 193 207
-0.18369424 -0.098428309 0.3836666 162 155 136
-0.026709793 -0.097976416 0.38399994 123 120 117
-0.024934782 -0.098466896 0.38299999 133 129 123
0.11228374 -0.097598419 0.38299996 99 114 127
0.11402068 -0.097598419 0.38299996 101 123 137
0.11631968 -0.098409839 0.38399994 102 140 162
0.12498813 -0.097542994 0.38399994 72 106 126
-0.18473357 -0.096729949 0.38299996 173 167 154
-0.026709793 -0.096676141 0.38399994 121 118 113
-0.024934782 -0.096729949 0.38299996 132 129 124
0.11402068 -0.096729949 0.38299996 79 99 110
0.11631968 -0.096676141 0.38399994 113 140 153
0.12498813 -0.096676141 0.38399994 114 153 173
-0.18880987 -0.093208767 0.38399994 149 139 125
-0.18560204 -0.094993003 0.38299996 172 164 150
-0.026709793 -0.094075613 0.38399994 127 127 119
-0.024934782 -0.094124533 0.38299999 116 117 108
0.11689758 -0.09465351 0.38399994 118 138 148
0.11805337 -0.09364219 0.38399994 108 141 154
0.1223876 -0.093208767 0.38399994 104 151 176
0.12422831 -0.094091378 0.3836666 109 157 182
0.12531081 -0.094993003 0.38299996 113 159 181
-0.19168133 -0.090650648 0.38299996 157 149 137
-0.18994439 -0.091519117 0.38299996 175 168 151
-0.026709793 -0.091041654 0.38399994 121 118 109
-0.024934782 -0.091519117 0.38299996 121 119 109
-0.026709793 -0.089307964 0.38399994 121 117 108
-0.19314408 -0.08540716 0.38399994 182 176 161
-0.024934782 -0.085874051 0.38299996 130 123 113
-0.19645794 -0.0828344 0.38299996 182 179 168
-0.19401094 -0.08367347 0.38399994 182 178 167
-0.024976103 -0.083240047 0.38399994 119 112 102
-0.19776064 -0.081097461 0.38299996 185 183 171
-0.19718525 -0.081952855 0.38349995 184 182 172
-0.024976103 -0.081506357 0.38399994 110 103 98
-0.19949758 -0.079360515 0.38299996 188 186 174
-0.024080625 -0.078486033 0.3833333 102 98 96
-0.023501644 -0.07559222 0.3833333 107 104 101
-0.023242412 -0.074138172 0.38399994 108 108 104
-0.021460894 -0.069807328 0.38299996 109 110 101
-0.18840879 -0.065756045 0.3833333 116 110 101
-0.18603627 -0.066333443 0.38299996 112 108 97
-0.18417077 -0.065901577 0.38349992 107 103 92
-0.046646904 -0.066768423 0.38349995 83 70 59
-0.04490963 -0.065464966 0.38299996 81 70 61
-0.18994439 -0.063728027 0.38299996 128 119 112
-0.1836088 -0.063736029 0.38399994 105 103 91
-0.18187511 -0.063302606 0.38399994 101 99 88
-0.0440467 -0.062869184 0.38399994 91 76 66
-0.19298403 -0.061556846 0.38299996 120 116 107
-0.18135026 -0.06134576 0.38349995 92 90 82
-0.0440467 -0.062002335 0.38399994 91 76 66
-0.19428676 -0.059385668 0.38299996 134 130 119
-0.18117531 -0.058523111 0.38333327 96 93 82
-0.04490963 -0.059385668 0.38299996 81 62 47
-0.040571287 -0.058522571 0.3833333 85 80 70
-0.18117531 -0.055485364 0.3833333 100 95 84
-0.04231301 -0.055067573 0.38399994 102 87 77
-0.018908184 -0.055067573 0.38399994 90 90 84
-0.18117531 -0.053749502 0.38333324 89 86 82
-0.017174494 -0.053767305 0.38399994 105 103 94
-0.18117531 -0.051145718 0.3833333 59 69 80
-0.017146515 -0.051150572 0.38349995 101 101 94
-0.18117531 -0.048975889 0.3833333 71 112 133
-0.017146515 -0.048982643 0.38349995 93 97 94
-0.18473357 -0.045490123 0.38299996 96 148 171
-0.18117531 -0.046806067 0.3833333 87 137 163
-0.017174494 -0.041198045 0.38399994 101 98 92
-0.017174494 -0.039030932 0.38399994 92 90 86
-0.017174494 -0.032529596 0.38399994 87 87 89
-0.040579319 -0.031662751 0.38399994 86 68 57
-0.017118536 -0.03116034 0.38299996 86 86 86
-0.17624061 -0.029062215 0.38399994 95 96 89
-0.17431191 -0.028120689 0.38299996 88 89 83
-0.017118536 -0.028120689 0.38299996 86 90 85
-0.17624061 -0.026895102 0.38399994 96 97 91
-0.17431191 -0.026817983 0.38299996 89 90 84
-0.017174494 -0.027328525 0.38399994 89 90 86
-0.17624061 -0.02386114 0.38399994 94 98 93
-0.17431192 -0.023778332 0.38299999 79 83 78
-0.016250065 -0.023778331 0.38299996 81 81 77
-0.17624059 -0.021260604 0.38399994 86 87 82
-0.17431191 -0.021172917 0.38299996 65 66 61
-0.17624059 -0.019093491 0.38399994 78 78 72
-0.17431191 -0.019001737 0.38299996 66 67 61
-0.17624061 -0.016059533 0.38399994 75 74 69
-0.17331153 -0.016016044 0.38355547 66 67 64
-0.17624061 -0.013459001 0.38399994 86 87 83
-0.17387767 -0.01422514 0.38299996 72 73 68
-0.17754087 -0.011291888 0.38399994 102 102 95
-0.17624061 -0.011291888 0.38399994 90 91 87
-0.17387766 -0.011619725 0.38299993 71 73 64
-0.040579319 -0.01172531 0.38399994 82 70 54
-0.037093386 -0.010751255 0.38299996 87 81 68
-0.012840267 -0.010858465 0.38399994 66 59 42
-0.17782982 -0.0085468777 0.38399994 83 84 73
-0.17624059 -0.0086913519 0.38399994 73 72 64
-0.17402242 -0.0087248189 0.38299999 53 50 42
-0.17820041 -0.0070642293 0.3836666 37 35 25
-0.17648308 -0.0072773658 0.38299996 45 41 30
-0.17431191 -0.0072773658 0.38299996 51 44 34
-0.018908184 -0.007391084 0.38399994 71 59 43
-0.063519664 -0.21775299 0.38499999 121 122 113
-0.061356619 -0.21775299 0.38499999 131 131 125
-0.05919357 -0.21775299 0.38499999 145 144 138
-0.056165304 -0.21775299 0.38499999 154 150 141
-0.053569645 -0.21775299 0.38499999 157 150 142
-0.063519664 -0.21558994 0.38499999 134 134 125
-0.061356615 -0.21558994 0.38499999 144 145 135
-0.05919357 -0.21558994 0.38499999 141 141 132
-0.056165308 -0.21558993 0.38499999 156 153 146
-0.054434866 -0.21558994 0.38499999 154 151 144
-0.05876096 -0.21429211 0.38499999 121 117 110
-0.056338351 -0.21359992 0.38499999 157 153 147
-0.055732697 -0.21083124 0.38499999 157 149 144
-0.05876096 -0.2091008 0.38499999 142 138 129
-0.055992257 -0.20892775 0.38499999 165 154 142
-0.05876096 -0.20693776 0.38499999 138 135 127
-0.056165308 -0.20693778 0.38499999 179 168 152
-0.054434866 -0.20650515 0.38499999 188 172 149
-0.05919357 -0.2039095 0.38499999 150 147 140
-0.056165311 -0.2039095 0.38499999 172 164 152
-0.053569648 -0.2039095 0.38499999 174 162 147
-0.05183921 -0.20304427 0.38499999 146 138 126
-0.05919357 -0.20131384 0.38499999 151 145 135
-0.056165308 -0.20131384 0.38499999 147 141 130
-0.053569645 -0.20131382 0.38499999 145 138 128
-0.05183921 -0.20131382 0.38499999 129 125 117
-0.05919357 -0.19915079 0.38499999 151 144 134
-0.056165308 -0.19915079 0.38499999 147 137 121
-0.053569645 -0.19915079 0.38499999 144 131 115
-0.0514066 -0.19915079 0.38499999 123 111 105
-0.059107047 -0.19629556 0.38499999 128 121 113
-0.056165304 -0.19612251 0.38499999 180 167 147
-0.053569645 -0.19612251 0.38499999 188 170 149
-0.051406596 -0.19612251 0.38499999 143 125 109
-0.05876096 -0.19352686 0.38499999 133 127 118
-0.055732697 -0.19352686 0.38499999 171 160 141
-0.053569645 -0.19352686 0.38499999 176 162 143
-0.05183921 -0.19439209 0.38499999 211 197 180
-0.18075684 -0.1909312 0.38499999 132 131 116
-0.17865495 -0.19101599 0.38649997 132 131 119
-0.1765188 -0.19075638 0.38699996 127 126 114
-0.055732697 -0.19136381 0.38499999 151 140 123
-0.053858053 -0.19150801 0.38499999 156 141 128
-0.18070893 -0.18832183 0.38633332 133 129 118
-0.17884067 -0.18859769 0.38574997 134 130 119
-0.17637514 -0.18831414 0.38699996 133 129 118
-0.1739329 -0.18817049 0.38699996 121 117 106
-0.055732697 -0.18920076 0.38499999 186 167 144
-0.18068497 -0.18659022 0.38699996 131 129 114
-0.17859168 -0.18664634 0.38674995 134 132 120
-0.17643636 -0.18664634 0.38674998 125 122 110
-0.17378923 -0.18659022 0.38699996 116 113 101
-0.17249629 -0.18659021 0.38699996 114 109 96
-0.18335247 -0.18357685 0.38499999 141 139 127
-0.18072714 -0.18360941 0.38683328 128 126 115
-0.17853005 -0.18357335 0.38699996 129 127 115
-0.17637514 -0.18357332 0.38699996 116 113 102
-0.17378922 -0.18357332 0.38699996 129 125 111
-0.17215149 -0.18340094 0.38699996 122 114 102
-0.18335247 -0.18098119 0.38499999 135 133 121
-0.18081149 -0.18066265 0.38649994 126 124 112
-0.17853004 -0.18055648 0.38699996 120 118 106
-0.17637512 -0.18055648 0.38699996 119 114 104
-0.17378923 -0.18055648 0.38699996 131 125 112
-0.1716807 -0.18051258 0.38679999 113 110 99
-0.18395978 -0.17860985 0.38599998 133 129 118
-0.18124302 -0.1789372 0.38649997 131 128 117
-0.17853004 -0.1788325 0.38699996 120 115 104
-0.17637512 -0.1788325 0.38699996 118 111 101
-0.17378923 -0.17883252 0.38699996 133 128 113
-0.17158 -0.17904162 0.38600001 112 111 98
-0.16939384 -0.17914578 0.38549998 92 90 80
-0.18398917 -0.17610295 0.38699996 135 132 118
-0.18111594 -0.1762466 0.38699996 134 130 118
-0.17853004 -0.17624661 0.38699996 125 120 110
-0.17637512 -0.17624663 0.38699996 122 117 108
-0.17378923 -0.17624661 0.38699996 127 123 112
-0.17146544 -0.17615223 0.38587499 114 112 99
-0.18542579 -0.17322972 0.38699996 150 144 131
-0.18413283 -0.17495367 0.38699996 140 134 121
-0.18090045 -0.1745227 0.38699996 136 130 119
-0.17853005 -0.1740917 0.38699996 123 116 107
-0.17637512 -0.1740917 0.38699996 124 118 109
-0.17378923 -0.1740917 0.38699996 122 118 107
-0.17154135 -0.17339438 0.38616666 111 109 97
-0.18810038 -0.17157036 0.38666663 160 153 143
-0.17809907 -0.17172129 0.38699996 128 124 113
-0.17637515 -0.17150581 0.38699996 118 115 105
-0.173585 -0.17149509 0.38649994 116 113 103
-0.17139673 -0.17156678 0.38579994 106 104 93
-0.18814471 -0.16858414 0.38649997 155 151 140
-0.17853005 -0.16805793 0.38699996 124 120 109
-0.17637512 -0.16848892 0.38699996 112 108 98
-0.17359667 -0.16867852 0.38599995 105 102 93
-0.17120022 -0.16840379 0.38516665 101 96 89
-0.18887365 -0.166334 0.38699996 153 149 132
-0.18054132 -0.16604668 0.38699996 115 114 107
-0.17853004 -0.166334 0.38699996 117 114 104
-0.17649677 -0.16642678 0.38649997 109 105 94
-0.17363612 -0.1665502 0.38583329 105 100 89
-0.17210463 -0.16583985 0.38499999 106 102 91
-0.19086851 -0.16349697 0.38599998 144 140 128
-0.18887365 -0.16340333 0.38699996 139 135 123
-0.18542579 -0.16331713 0.38699996 140 138 127
-0.18413283 -0.16331713 0.38699996 137 135 125
-0.18111597 -0.1637481 0.38699996 121 120 113
-0.17853005 -0.16374812 0.38699996 112 112 105
-0.17657842 -0.16389838 0.3861666 110 110 102
-0.17372856 -0.16402894 0.3854444 103 103 95
-0.17210463 -0.16454203 0.38499999 106 106 96
-0.19306691 -0.16087891 0.3853333 148 142 129
-0.19115639 -0.16076227 0.38600001 146 143 129
-0.18870124 -0.16081741 0.38699996 144 140 130
-0.18542579 -0.16073123 0.38699996 143 139 131
-0.18413283 -0.16073123 0.38699996 138 136 129
-0.18111597 -0.16073123 0.38699996 128 126 118
-0.17865331 -0.16081871 0.38649994 122 123 113
-0.176268 -0.16096453 0.38566664 121 122 111
-0.17354667 -0.16122536 0.38499999 106 106 96
-0.19323397 -0.15887499 0.38524997 145 139 126
-0.19086851 -0.15874721 0.38599998 140 135 123
-0.18857649 -0.15866175 0.38649997 144 140 127
-0.18542579 -0.15857631 0.38699996 142 139 132
-0.18413283 -0.15857631 0.38699996 138 135 129
-0.18111597 -0.15857631 0.38699996 126 126 117
-0.17865331 -0.15866175 0.38649994 125 126 116
-0.176268 -0.15880418 0.38566664 122 123 112
-0.17383507 -0.15891811 0.38499999 111 112 103
-0.19301766 -0.15649766 0.38524997 150 147 137
-0.19086851 -0.15615644 0.38599995 136 133 123
-0.18848728 -0.15601835 0.38683328 138 135 124
-0.18542579 -0.15685238 0.38699996 143 141 129
-0.18413283 -0.15685238 0.38699996 138 136 124
-0.18082863 -0.15627773 0.38699996 124 125 116
-0.17853004 -0.15599041 0.38699996 122 123 114
-0.176268 -0.15621179 0.38566664 119 121 113
-0.17383508 -0.15632245 0.38499999 111 112 109
-0.0514066 -0.15545723 0.38499999 212 212 206
-0.048378333 -0.15545723 0.38499999 218 217 210
-0.046647895 -0.15545723 0.38499999 216 214 206
-0.04405224 -0.15545723 0.38499999 170 169 160
