# .PCD v0.7 - Point Cloud Data file format
VERSION 0.7
FIELDS x y z rgb
SIZE 4 4 4 4
TYPE F F F F
COUNT 1 1 1 1
WIDTH 996
HEIGHT 1
VIEWPOINT 0 0 0 1 0 0 0
POINTS 996
DATA ascii
0.099025168 0.036454465 0.50850004 4.5161411e-39
0.10067475 0.036267936 0.50820005 4.5161425e-39
0.10278334 0.035592973 0.50800002 4.2409934e-39
0.12343801 0.037245344 0.50800002 8.4823455e-39
0.09360379 0.039526168 0.509 5.4388149e-39
0.096363164 0.039388198 0.509 5.715036e-39
0.099065505 0.039310813 0.50800002 6.5429988e-39
0.10030478 0.038897719 0.50800002 5.5292084e-39
0.123681 0.038974293 0.509 8.6656577e-39
0.093465827 0.041457728 0.509 5.7153976e-39
0.096299522 0.041430578 0.50866669 6.9124988e-39
0.099065498 0.041376278 0.50800002 7.0032539e-39
0.093548611 0.043775607 0.509 6.5451554e-39
0.096299514 0.043912392 0.50866663 6.8199431e-39
0.099065505 0.043854836 0.50799996 6.9117786e-39
0.1235595 0.043898817 0.50849998 9.7723654e-39
0.09387973 0.046838515 0.509 7.2827233e-39
0.096331336 0.046823308 0.50883335 6.6366322e-39
0.099065498 0.046746492 0.50800002 6.8199445e-39
0.096363164 0.048494142 0.509 7.1905277e-39
0.099065498 0.048398864 0.50800002 7.0050546e-39
0.10030478 0.048398864 0.50800002 7.2809226e-39
0.096915044 0.050839607 0.509 8.2046796e-39
0.09891957 0.051358372 0.50866669 8.3887079e-39
0.10071787 0.051290512 0.50799996 8.5723803e-39
0.10333413 0.051565912 0.50799996 7.2809254e-39
0.099674419 0.053874921 0.509 9.4954156e-39
0.1010541 0.054150861 0.509 8.2968738e-39
0.10367724 0.05421799 0.50833338 8.6649347e-39
0.10636348 0.05431987 0.50800002 7.1894444e-39
0.10397904 0.055861674 0.509 7.4674733e-39
0.10634644 0.055862226 0.50825 6.7295481e-39
0.10774047 0.055834543 0.50800002 6.7291894e-39
0.10624431 0.058399398 0.50874996 6.2689357e-39
0.10836408 0.058630645 0.5086 6.4526067e-39
0.1109894 0.058995742 0.5082857 6.2692944e-39
0.11393687 0.059552383 0.50800002 6.0852633e-39
0.11517615 0.059552383 0.50800002 6.7306327e-39
0.12302492 0.059552383 0.50800002 7.7444273e-39
0.12509039 0.059139289 0.50800002 1.060177e-38
0.11374724 0.061325237 0.509 6.3618516e-39
0.1157026 0.061264995 0.50849998 7.0072196e-39
0.11873975 0.061584074 0.50839996 6.4536885e-39
0.12131367 0.061796248 0.50833338 8.6645801e-39
0.12302492 0.061617851 0.50800002 9.494338e-39
0.12509039 0.061617848 0.50800002 1.1798511e-38
0.12326709 0.06298086 0.509 9.5858134e-39
0.12509039 0.062857129 0.50800002 1.1061669e-38
0.11858112 0.02171747 0.51200002 4.7988517e-39
0.10942151 0.024215546 0.51200002 3.8768968e-39
0.11136445 0.023660416 0.51200002 4.2453192e-39
0.11333854 0.024068635 0.51142859 4.0605678e-39
0.11598834 0.023757003 0.51112503 4.244959e-39
0.11844942 0.023882261 0.51083332 4.0598475e-39
0.12008993 0.023905909 0.51133341 4.2431598e-39
0.10359266 0.025880929 0.51200002 2.953137e-39
0.1055712 0.026686721 0.5115 3.0449739e-39
0.10844707 0.026123349 0.51133341 3.1378912e-39
0.11141085 0.026225332 0.51062506 3.5981491e-39
0.11397071 0.025779832 0.51000005 3.9665715e-39
0.12042718 0.026661448 0.51100004 3.5963498e-39
0.089436896 0.029211698 0.51200002 4.426821e-39
0.090685934 0.029211698 0.51200002 3.9658428e-39
0.09376689 0.02887862 0.51200002 2.4903596e-39
0.096281886 0.02918263 0.51150006 2.3063313e-39
0.098184861 0.028957022 0.51171434 2.5832755e-39
0.10096268 0.028756911 0.51133341 2.6751096e-39
0.10369153 0.028765179 0.51066673 2.7673038e-39
0.10593507 0.028489366 0.51025003 3.2279232e-39
0.10816464 0.028268151 0.51000005 3.4126718e-39
0.12274458 0.028379006 0.51200002 5.0707596e-39
0.086405247 0.031530522 0.51180005 5.7157605e-39
0.088794976 0.031400699 0.51150006 5.2551425e-39
0.090567857 0.03139038 0.51133341 5.0714715e-39
0.093478478 0.03139038 0.51133341 3.5956254e-39
0.096537396 0.032133769 0.51080006 2.7658703e-39
0.098785736 0.031942457 0.51040006 2.7669451e-39
0.10097617 0.031862382 0.51000005 2.6747467e-39
0.10318801 0.031585906 0.51000005 2.9506147e-39
0.08194267 0.033375159 0.51200002 6.360767e-39
0.08333049 0.033097595 0.51200002 6.5458771e-39
0.08589673 0.033749543 0.51137507 5.8079533e-39
0.088846684 0.034141041 0.51100004 5.1629469e-39
0.090852521 0.034279875 0.51060009 5.070754e-39
0.09343686 0.033921376 0.51020008 4.333189e-39
0.096552499 0.034074225 0.51000005 3.2268484e-39
0.099040806 0.033244785 0.51000005 2.7673052e-39
0.079444595 0.036705926 0.51200002 7.2816485e-39
0.081109978 0.035873234 0.51200002 7.5582298e-39
0.083181202 0.03608042 0.51157147 7.9270095e-39
0.085937962 0.036634237 0.5110001 6.3607656e-39
0.089125998 0.036578294 0.51022226 5.4398925e-39
0.091575854 0.036562543 0.51000005 5.2551439e-39
0.093649454 0.036562543 0.51000005 4.6097745e-39
0.095999539 0.036009584 0.51000005 4.2409948e-39
0.079444595 0.03837131 0.51200002 7.3731224e-39
0.081109978 0.03837131 0.51200002 7.8348167e-39
0.083110064 0.038957134 0.5115 7.6504254e-39
0.085909657 0.039529931 0.51083344 6.452964e-39
0.089087538 0.039465576 0.51000005 6.9139394e-39
0.091575861 0.039465576 0.51000005 6.26857e-39
0.093234733 0.039050858 0.51000005 5.3473381e-39
0.079444595 0.040036693 0.51200002 7.0961782e-39
0.081109978 0.040453039 0.51200002 7.1898102e-39
0.083110057 0.041036833 0.51150006 7.0054189e-39
0.085909657 0.041607324 0.51083344 6.9139436e-39
0.089087538 0.041539177 0.51000005 6.8213864e-39
0.091575854 0.041539177 0.51000005 6.3607656e-39
0.081276521 0.043200921 0.51200002 7.2809296e-39
0.083075784 0.043517061 0.51179999 7.0054217e-39
0.085937962 0.044113822 0.5110001 6.8213892e-39
0.089125991 0.044046864 0.51022232 6.6369965e-39
0.091575861 0.044027496 0.51000005 6.4526039e-39
0.093234733 0.044856936 0.51000005 7.0983292e-39
0.12392399 0.044027496 0.51000005 9.9574755e-39
0.08194267 0.045032844 0.51200002 7.0972572e-39
0.083191708 0.045865536 0.51200002 6.912866e-39
0.086137481 0.04695769 0.51120007 7.1901717e-39
0.089203447 0.046991881 0.51066679 6.8213892e-39
0.091575861 0.046930529 0.51000005 7.0057805e-39
0.093234733 0.046930529 0.51000005 7.0061364e-39
0.08333049 0.047808483 0.51200002 6.912866e-39
0.085962914 0.04858803 0.51185721 6.9143023e-39
0.088846691 0.048684686 0.51100004 6.913945e-39
0.091111325 0.048637182 0.51050007 7.1901703e-39
0.093649447 0.048589412 0.51000005 7.098332e-39
0.086272672 0.051194765 0.51200002 6.9150212e-39
0.088725448 0.051228367 0.5115 7.375279e-39
0.090591922 0.051427204 0.51100004 7.9277298e-39
0.093356244 0.051560123 0.51066673 7.8351768e-39
0.096276015 0.051768925 0.51000005 7.7437028e-39
0.088881768 0.053082198 0.51200002 7.3749231e-39
0.090547152 0.053637326 0.51200002 8.4805434e-39
0.093670607 0.054320835 0.51125002 7.4663943e-39
0.096646614 0.054448951 0.51050001 7.2823674e-39
0.09876433 0.054533731 0.51000005 7.7437014e-39
0.10069969 0.054810207 0.51000005 8.0202883e-39
0.090685934 0.055025145 0.51200002 8.2961563e-39
0.093600355 0.055857837 0.51200002 7.1901689e-39
0.096165031 0.056191951 0.51125002 7.1901731e-39
0.098326251 0.056037527 0.51060009 7.6511513e-39
0.10090474 0.056159455 0.51020002 7.4674789e-39
0.10318801 0.056469087 0.51000005 8.0213645e-39
0.096376002 0.058633476 0.51200002 6.822471e-39
0.098180175 0.058772258 0.51200002 7.467839e-39
0.10096268 0.058696002 0.51133341 7.0990579e-39
0.10392305 0.059009142 0.51044452 7.2838051e-39
0.10650577 0.059786841 0.51000005 5.9927089e-39
0.10816464 0.059786841 0.51000005 6.2692972e-39
0.10151094 0.060853992 0.51200002 7.1912521e-39
0.10349068 0.061626442 0.5115 6.8224696e-39
0.105468 0.0615662 0.51100004 5.9927075e-39
0.10823479 0.061485875 0.51033336 6.2692972e-39
0.11123741 0.061826337 0.51040006 6.0852661e-39
0.11294758 0.062397264 0.51100004 6.0852661e-39
0.1157802 0.062356561 0.51066673 7.0068595e-39
0.11811791 0.06227516 0.51000005 6.2693028e-39
0.10359266 0.062519372 0.51200002 7.5600318e-39
0.10567439 0.062519372 0.51200002 6.0849032e-39
0.10858881 0.062519372 0.51200002 7.4678376e-39
0.11649939 0.063352063 0.51200002 7.0986936e-39
0.1184645 0.063290194 0.5115 6.5458827e-39
0.12099054 0.063405573 0.51075006 8.4801889e-39
0.12333483 0.064059392 0.51100004 8.6638599e-39
0.12399361 0.065850139 0.51200002 7.4667614e-39
0.053561997 0.021523656 0.514 7.8351782e-39
0.056348477 0.02138433 0.514 7.0054175e-39
0.058856308 0.021384332 0.514 5.9912656e-39
0.060806852 0.021523656 0.514 5.0703869e-39
0.06387198 0.021802304 0.514 4.7945203e-39
0.12059879 0.021363124 0.51349998 4.7066547e-39
0.053422671 0.023474194 0.514 8.1117637e-39
0.056348484 0.023474194 0.514 7.8351726e-39
0.058856308 0.023474192 0.514 7.0054133e-39
0.060946174 0.023474194 0.514 5.6232005e-39
0.063871972 0.023474194 0.514 5.2551425e-39
0.066101164 0.023752844 0.514 5.6239208e-39
0.068051703 0.024310138 0.514 5.8075932e-39
0.098981649 0.024310136 0.514 2.4932407e-39
0.10204679 0.023752844 0.514 2.8627435e-39
0.10371867 0.023752844 0.514 3.1393318e-39
0.10588078 0.024262842 0.51300001 3.323723e-39
0.1088009 0.02370663 0.51300001 3.6925055e-39
0.11046953 0.022594206 0.51300001 4.2456793e-39
0.12167314 0.023722395 0.51333332 4.5204655e-39
0.053422671 0.025564056 0.514 8.1121238e-39
0.056348477 0.025564054 0.514 8.2961521e-39
0.058770023 0.02552655 0.51324999 7.2820016e-39
0.060827598 0.02551432 0.51300001 6.176017e-39
0.063789405 0.025530627 0.51333332 5.7161178e-39
0.066379815 0.025564056 0.514 6.1770946e-39
0.068469673 0.025564056 0.514 6.0841801e-39
0.071186498 0.025773041 0.514 4.6101304e-39
0.086442485 0.025982028 0.514 3.8736472e-39
0.088950321 0.025982028 0.514 3.5048661e-39
0.091458149 0.02570338 0.514 2.8598596e-39
0.094060048 0.025627431 0.51359999 2.5836342e-39
0.096379973 0.02553878 0.51349998 2.3084893e-39
0.098737761 0.025460239 0.51359999 2.308848e-39
0.10145889 0.025597751 0.51300001 2.5854349e-39
0.10379499 0.02509716 0.51300001 2.9542188e-39
0.10588078 0.02509716 0.51300001 2.862026e-39
0.12185188 0.025539188 0.51349998 4.2417206e-39
0.053840641 0.028071888 0.514 8.5734621e-39
0.056348484 0.028489858 0.514 7.7426252e-39
0.05877943 0.028453177 0.51333332 7.0047015e-39
0.060827598 0.028434433 0.51300001 6.6362791e-39
0.063747719 0.028434429 0.51300001 7.098332e-39
0.06627246 0.028443398 0.51316667 6.7288306e-39
0.068447612 0.028480351 0.51383328 6.8210249e-39
0.071395479 0.028489862 0.514 6.2678511e-39
0.073903307 0.02848986 0.514 5.8079547e-39
0.075909577 0.028657049 0.514 5.6242837e-39
0.078799561 0.028728707 0.514 5.2551411e-39
0.081594005 0.028657049 0.514 4.9789101e-39
0.08348947 0.028480353 0.51383328 4.6104877e-39
0.086367548 0.028464684 0.51355553 4.5182977e-39
0.088679619 0.028289089 0.51339996 4.2424297e-39
0.090863056 0.028017273 0.51300001 3.5048661e-39
0.093574591 0.027808692 0.51300001 2.7669451e-39
0.096286125 0.027600113 0.51300001 2.3070487e-39
0.097954765 0.027600113 0.51300001 2.5836356e-39
0.12214999 0.027600113 0.51300001 3.7800208e-39
0.056905773 0.030719047 0.514 7.6507897e-39
0.058856308 0.030997697 0.514 7.1894515e-39
0.060886886 0.030968355 0.51349998 7.4660383e-39
0.063747711 0.030937389 0.51300001 7.0976118e-39
0.066250674 0.030937389 0.51300001 6.4515249e-39
0.06843657 0.030983025 0.51374996 7.0976118e-39
0.071395479 0.030997699 0.514 6.8210249e-39
0.073903307 0.030997697 0.514 6.7291894e-39
0.075993173 0.030997697 0.514 6.6369937e-39
0.078867532 0.03097705 0.51366663 5.8079533e-39
0.0812684 0.030937387 0.51300001 5.6239208e-39
0.08335419 0.030937387 0.51300001 5.9008664e-39
0.085857145 0.030103069 0.51300001 5.4395338e-39
0.057184421 0.032669585 0.514 7.7426266e-39
0.058856308 0.033087559 0.514 7.5585927e-39
0.060946174 0.033087559 0.514 7.6511471e-39
0.063871972 0.033087559 0.514 7.5582298e-39
0.066379815 0.033087559 0.514 6.0831025e-39
0.068469673 0.033087559 0.514 6.7284719e-39
0.071395479 0.033087559 0.514 7.7433385e-39
0.073903307 0.033087559 0.514 7.5589472e-39
0.075882092 0.033039071 0.51324999 7.5585885e-39
0.078765444 0.033023182 0.51300001 6.5448009e-39
0.080990292 0.032884132 0.51300001 5.8994315e-39
0.082937032 0.032606024 0.51300001 6.361846e-39
0.061085496 0.035456065 0.514 7.7429826e-39
0.064110823 0.035893939 0.514 7.6504268e-39
0.066379808 0.036013361 0.514 7.6504254e-39
0.068469673 0.036013365 0.514 6.8210263e-39
0.071395479 0.036013357 0.514 7.9280927e-39
0.073903307 0.036013361 0.514 8.3887107e-39
0.075845331 0.0359433 0.51300001 8.2039607e-39
0.078661151 0.035839006 0.51300001 6.9135834e-39
0.067215756 0.037685253 0.514 7.2802065e-39
0.068608999 0.038242549 0.514 7.4653153e-39
0.071395479 0.038521197 0.514 7.7429826e-39
0.073903307 0.038521197 0.514 8.0192135e-39
0.075882092 0.038465392 0.51324999 8.4794686e-39
0.078348279 0.038446248 0.51300001 8.2028831e-39
0.071395479 0.040611058 0.514 7.9266522e-39
0.073903307 0.040611055 0.514 7.6507883e-39
0.075918846 0.040571552 0.51349998 7.2820044e-39
0.078598581 0.04061548 0.51300001 7.5571578e-39
0.071395479 0.043536868 0.514 7.7429826e-39
0.073903307 0.04353686 0.514 7.6507855e-39
0.075968392 0.043523017 0.51383328 6.8213864e-39
0.078765437 0.043452162 0.51300001 7.1894529e-39
0.080434076 0.044286478 0.51300001 7.5571564e-39
0.011207469 0.046880644 0.514 3.872571e-39
0.014133275 0.046880644 0.514 3.872571e-39
0.015805164 0.046880644 0.514 3.4115928e-39
0.017895026 0.046880644 0.514 4.0569622e-39
0.073903307 0.0460447 0.514 7.8351768e-39
0.075993173 0.0460447 0.514 7.0057763e-39
0.078816086 0.04598498 0.51333332 7.4663985e-39
0.080990292 0.046233222 0.51300001 7.3738441e-39
-0.0030035891 0.048552532 0.514 7.0061364e-39
-0.00077440357 0.04827388 0.514 6.8221053e-39
0.00075816159 0.048134558 0.514 6.4529668e-39
0.0036839682 0.048134554 0.514 6.0852619e-39
0.0066097742 0.048134558 0.514 5.6242837e-39
0.0082816631 0.048134558 0.514 5.5317294e-39
0.011207469 0.048134562 0.514 5.1629483e-39
0.014133275 0.048134558 0.514 4.9789171e-39
0.015805162 0.048134558 0.514 5.0711128e-39
0.01873097 0.048134562 0.514 5.0707526e-39
0.021656774 0.048134558 0.514 4.4253832e-39
0.023328666 0.048134558 0.514 4.4253846e-39
0.026254473 0.048552532 0.514 4.333189e-39
0.074739255 0.047716588 0.514 7.2820044e-39
0.075993173 0.048134558 0.514 7.0972572e-39
0.078867264 0.048103344 0.51366663 7.5582354e-39
0.0812684 0.048040912 0.51300001 7.4660397e-39
0.082937032 0.04845807 0.51300001 7.3738441e-39
-0.0034215616 0.051060364 0.514 1.050921e-38
-0.00091372774 0.051060367 0.514 9.1259226e-39
0.00075816154 0.051060364 0.514 9.1262842e-39
0.0036839677 0.051060367 0.514 8.2050495e-39
0.0066097737 0.051060367 0.514 7.4678418e-39
0.0082816631 0.051060367 0.514 7.098339e-39
0.011195175 0.051004633 0.51344442 6.4533255e-39
0.014114943 0.050993595 0.51333332 6.1774575e-39
0.015784664 0.050993595 0.51333332 5.9927061e-39
0.018706677 0.050993595 0.51333332 5.9005119e-39
0.021635845 0.05101015 0.51349998 5.4391722e-39
0.023321236 0.05104354 0.51383334 5.2540635e-39
0.026254471 0.051060367 0.514 4.6097731e-39
0.028762309 0.051060364 0.514 5.0707526e-39
0.076411143 0.05022442 0.514 6.7299208e-39
0.079157822 0.050940949 0.514 6.453327e-39
0.081347339 0.051011235 0.51350003 6.9135848e-39
0.083354197 0.050961021 0.51300001 7.7433441e-39
0.085439987 0.051795345 0.51300001 6.9150198e-39
-0.0032822371 0.053289551 0.514 1.1708114e-38
-0.00091372768 0.053568199 0.514 1.1800309e-38
0.00075816154 0.053568199 0.514 1.1430809e-38
0.0036839677 0.053568199 0.514 1.0878356e-38
0.0066097737 0.053568199 0.514 9.4028724e-39
0.0082816631 0.053568199 0.514 8.7575016e-39
0.011189028 0.053481624 0.51316667 7.4671187e-39
0.014105779 0.053463981 0.51300001 7.1916067e-39
0.015774416 0.053463981 0.51300001 5.9927075e-39
0.018694529 0.053463984 0.51300001 5.9005119e-39
0.021614645 0.053463981 0.51300001 5.5317294e-39
0.023294831 0.053490441 0.51324999 5.7157605e-39
0.02625447 0.053568199 0.514 6.2682126e-39
0.028762307 0.053568199 0.514 5.7154004e-39
0.081705458 0.053289551 0.514 6.6373581e-39
0.083475851 0.053542551 0.51375002 7.7433427e-39
0.086274303 0.053463984 0.51300001 7.7433427e-39
0.087942943 0.0542983 0.51300001 6.8213892e-39
-0.0030035891 0.055240087 0.514 1.2351682e-38
-0.00070474151 0.055867046 0.514 1.1983982e-38
0.00075816159 0.056076035 0.514 1.216837e-38
0.0036839677 0.056076031 0.514 1.1614839e-38
0.0066097737 0.056076031 0.514 1.1060949e-38
0.0082816631 0.056076031 0.514 1.0508497e-38
0.011207468 0.056076031 0.514 8.3887163e-39
0.014124109 0.056040209 0.51366663 8.9418831e-39
0.015794916 0.056040209 0.51366663 6.7295537e-39
0.018718824 0.056040209 0.51366663 6.5451624e-39
0.021649888 0.05605812 0.51383334 6.7299124e-39
0.023328664 0.056076035 0.514 6.453327e-39
0.026135052 0.055837192 0.514 6.9139408e-39
0.027926363 0.055240087 0.514 5.9912656e-39
0.083516672 0.055240087 0.514 8.7578534e-39
0.08650472 0.05594467 0.51374996 8.9415272e-39
0.088834941 0.056003843 0.51333332 7.5582354e-39
0.090863056 0.056384094 0.51300001 8.0199296e-39
0.092948854 0.056801256 0.51300001 7.5593102e-39
0.0011761339 0.058583863 0.514 1.0600691e-38
0.0036839677 0.058583867 0.514 1.1338616e-38
0.0064704497 0.058862511 0.514 1.1522647e-38
0.0082816631 0.058583863 0.514 1.1061308e-38
0.011374658 0.058918238 0.514 9.1252009e-39
0.014133275 0.059001837 0.514 8.9411656e-39
0.015805164 0.059001833 0.514 8.1110518e-39
0.01873097 0.059001833 0.514 7.0972572e-39
0.02151745 0.058862507 0.514 6.6366378e-39
0.088950321 0.058583863 0.514 7.5593116e-39
0.091255367 0.059062637 0.51379997 7.4671159e-39
0.093950033 0.058803618 0.51300001 6.3611327e-39
0.095451809 0.059304211 0.51300001 6.5462442e-39
0.092294097 0.060255755 0.514 6.8224682e-39
0.094383955 0.060255755 0.514 6.2696574e-39
0.09642648 0.061062392 0.51375002 6.5458841e-39
0.098737761 0.061211996 0.51359999 7.4678376e-39
0.10045772 0.060138527 0.51300001 6.7302754e-39
0.099399626 0.062763587 0.514 7.2834464e-39
0.10180832 0.063120507 0.51349998 7.3752818e-39
0.10389616 0.063955635 0.51349998 8.850049e-39
0.10598398 0.063955635 0.51349998 6.3611285e-39
0.10887187 0.063934743 0.51333332 7.6522289e-39
0.11141233 0.063955635 0.51349998 6.7306313e-39
0.11350017 0.063955635 0.51349998 6.1774589e-39
0.11621495 0.064164221 0.51349998 7.7437014e-39
0.1189277 0.064372793 0.51349998 6.8217507e-39
0.12048136 0.064310119 0.51300001 7.0979761e-39
0.11235677 0.06694331 0.514 6.912866e-39
0.12147278 0.066064499 0.51366663 6.822471e-39
0.12447796 0.06694331 0.514 7.1912535e-39
0.12560958 0.066461034 0.51349998 8.1114148e-39
0.036497593 0.0067947293 0.51700002 6.9132205e-39
0.038179241 0.0067947293 0.51700002 6.4522437e-39
0.032293476 0.0093172006 0.51700002 7.9270179e-39
0.034395531 0.0084763765 0.51700002 8.3883506e-39
0.036497593 0.0084763765 0.51700002 8.2950717e-39
0.039020065 0.0084763765 0.51700002 7.1890857e-39
0.041962948 0.0084763765 0.51700002 6.2671322e-39
0.044065006 0.0093172006 0.51700002 5.8987084e-39
0.032293476 0.010578436 0.51700002 8.4801945e-39
0.034395535 0.010578436 0.51700002 9.2181112e-39
0.036479536 0.010573117 0.51675004 9.3092237e-39
0.038944587 0.010557975 0.51600003 9.1244709e-39
0.041902274 0.010562886 0.51625001 7.0965271e-39
0.044044103 0.010573117 0.51675004 5.9912628e-39
0.046419315 0.010662518 0.51700002 5.8997888e-39
0.049109947 0.010998848 0.51700002 4.9789115e-39
0.032293476 0.013521318 0.51700002 9.0326466e-39
0.034395535 0.013521318 0.51700002 9.8624031e-39
0.036426999 0.013495165 0.51600003 9.5854546e-39
0.038944587 0.013495166 0.51600003 9.0315592e-39
0.041881781 0.013495165 0.51600003 8.1095987e-39
0.043979775 0.013495165 0.51600003 7.3723966e-39
0.046517566 0.013500614 0.51622224 6.6362721e-39
0.049498424 0.013512059 0.51666665 6.1760156e-39
0.051444609 0.013683927 0.51680005 5.4377345e-39
0.053944685 0.014151936 0.51700002 5.1622266e-39
0.05667736 0.014362142 0.51700002 4.2413535e-39
0.034395531 0.01604379 0.51700002 8.2954389e-39
0.036444239 0.016020922 0.51625001 8.7556926e-39
0.038524989 0.016012758 0.51600003 8.4791071e-39
0.041395221 0.015986627 0.5151667 8.8471665e-39
0.043894541 0.015981724 0.51500005 8.4791015e-39
0.046293806 0.015831854 0.51560009 7.4653125e-39
0.049145125 0.016167535 0.51560009 6.5437191e-39
0.051532548 0.016012758 0.51600003 5.8072345e-39
0.054067876 0.016017659 0.51616669 5.4391708e-39
0.056884009 0.016302291 0.51633334 4.7019701e-39
0.058041107 0.015752628 0.51666671 4.3335477e-39
0.060881481 0.016464202 0.51700002 3.5970631e-39
0.063403949 0.016884614 0.51700002 3.1368094e-39
0.034815945 0.018145848 0.51700002 7.9262948e-39
0.036479536 0.018137276 0.51675004 8.3872702e-39
0.038944591 0.01811075 0.51600003 8.6638571e-39
0.041840792 0.018093202 0.51550007 8.3865499e-39
0.043894541 0.018075652 0.51500005 8.1096015e-39
0.04598847 0.018075652 0.51500005 7.0039784e-39
0.048919965 0.018075652 0.51500005 7.373121e-39
0.051432677 0.018075652 0.51500005 6.176017e-39
0.05379916 0.017998751 0.51520002 5.9916257e-39
0.056647874 0.018166268 0.51520002 5.5320853e-39
0.059028074 0.018092796 0.51550007 5.0711072e-39
0.06141153 0.018187487 0.51580006 4.1495138e-39
0.063972026 0.018127892 0.5165 3.0438949e-39
0.065646142 0.018005712 0.51700002 2.5832769e-39
0.068448894 0.01856626 0.51700002 2.7669479e-39
0.07097137 0.01856626 0.51700002 2.5825566e-39
0.036777869 0.020528182 0.51700002 8.6635039e-39
0.038994543 0.021075496 0.51666665 9.0322851e-39
0.041881774 0.02104794 0.51600003 8.20216e-39
0.043951362 0.021034887 0.51566672 7.0028938e-39
0.04598847 0.02100715 0.51500005 6.8177837e-39
0.048919968 0.02100715 0.51500005 7.4645964e-39
0.05143268 0.02100715 0.51500005 7.1898102e-39
0.053387012 0.020448769 0.51500005 7.1901703e-39
0.056458104 0.020169578 0.51500005 6.4529626e-39
0.058970824 0.020169578 0.51500005 5.6232019e-39
0.06176272 0.02072796 0.51500005 4.8867159e-39
0.06454882 0.020855304 0.51540005 4.5182935e-39
0.066595055 0.021033801 0.51566672 3.7810914e-39
0.069067545 0.021157328 0.51612502 3.6888972e-39
0.071357056 0.020867921 0.51674998 3.6888986e-39
0.073026307 0.021074593 0.51666671 3.5048661e-39
0.076066278 0.021177929 0.51662499 3.3215552e-39
0.078513734 0.021081664 0.51683336 2.5839944e-39
0.081061251 0.021509143 0.51700002 2.3074089e-39
0.084004134 0.021509144 0.51700002 2.0311821e-39
0.086106196 0.021509144 0.51700002 2.1237379e-39
0.088628657 0.02122887 0.51700002 2.4006863e-39
0.091284357 0.021584744 0.51679999 2.4935994e-39
0.093332388 0.021635143 0.51666671 2.5854363e-39
0.095590413 0.021887138 0.51600003 2.6779921e-39
0.039580613 0.023330927 0.51700002 9.3092279e-39
0.041942451 0.023600191 0.51675004 8.9397251e-39
0.043979771 0.023565535 0.51600003 7.4638719e-39
0.046055239 0.023554523 0.51575005 8.1095973e-39
0.048919965 0.023519864 0.51500005 8.5713013e-39
0.051432677 0.023519862 0.51500005 7.9273738e-39
0.067346528 0.022682292 0.51500005 4.7023246e-39
0.069189183 0.023352351 0.51500005 4.8859984e-39
0.071813583 0.023799052 0.51500005 4.5182949e-39
0.073489591 0.023541884 0.51550007 4.4261021e-39
0.076007709 0.023388233 0.51580006 4.1505942e-39
0.078386866 0.023565535 0.51600003 3.7810914e-39
0.080484852 0.023565533 0.51600003 3.3201147e-39
0.083422057 0.023565531 0.51600003 2.8602169e-39
0.085939631 0.023565535 0.51600003 2.5843489e-39
0.08803764 0.023565535 0.51600003 2.4921575e-39
0.091163531 0.023671906 0.51571435 2.4921603e-39
0.09403 0.023541884 0.51550007 2.5847174e-39
0.096363366 0.023361158 0.51520008 2.5854363e-39
0.098755442 0.022682292 0.51500005 2.7705464e-39
0.10084937 0.022682292 0.51500005 2.8627421e-39
0.10545601 0.022682292 0.51500005 3.4159186e-39
0.12262621 0.022682292 0.51500005 4.7981314e-39
0.041962944 0.025713261 0.51700002 9.4010606e-39
0.044043291 0.025701031 0.51675004 8.2017971e-39
0.046329524 0.025747444 0.51600003 9.4010592e-39
0.049106479 0.025540143 0.51520002 8.5727418e-39
0.051432677 0.02561379 0.51500005 8.2039607e-39
0.071953177 0.025195004 0.51500005 4.5179362e-39
0.074047096 0.02561379 0.51500005 4.6101346e-39
0.076559812 0.02561379 0.51500005 4.5175803e-39
0.07949131 0.02561379 0.51500005 4.425742e-39
0.081585236 0.02561379 0.51500005 4.1491551e-39
0.08393044 0.025530035 0.51500005 3.873287e-39
0.086889841 0.025474196 0.51500005 3.3211937e-39
0.089123376 0.025195004 0.51500005 3.0446068e-39
0.091217309 0.025195004 0.51500005 2.5836356e-39
0.12478407 0.026133673 0.51700002 5.4424218e-39
0.042383358 0.028235732 0.51700002 9.032641e-39
0.044065002 0.028656146 0.51700002 9.4936177e-39
0.04654688 0.028631691 0.51655555 9.7698445e-39
0.049434558 0.028600715 0.51600003 8.7556982e-39
0.051449049 0.028554795 0.5151667 8.8493301e-39
0.053317219 0.028754681 0.51500005 8.9422446e-39
0.076559812 0.027707716 0.51500005 4.7941671e-39
0.07949131 0.027707716 0.51500005 4.9785556e-39
0.080747664 0.027707716 0.51500005 4.7019687e-39
0.12454271 0.027761519 0.51600003 6.1796197e-39
0.044065006 0.031178612 0.51700002 9.0333612e-39
0.046587478 0.031178614 0.51700002 9.4939793e-39
0.049434558 0.031118309 0.51600003 8.9404454e-39
0.051532548 0.031118309 0.51600003 8.4809077e-39
0.05352661 0.031057999 0.51500005 8.572746e-39
0.055899728 0.03133719 0.51500005 7.5582354e-39
0.042103082 0.033420809 0.51700002 8.7571345e-39
0.044065006 0.033280671 0.51700002 8.8493301e-39
0.046587478 0.033280674 0.51700002 8.9415258e-39
0.049458303 0.033232599 0.51625001 8.4801875e-39
0.051532548 0.033216301 0.51600003 7.9273766e-39
0.053604357 0.033200413 0.51575005 7.9270179e-39
0.056290597 0.033235688 0.51500005 7.2820086e-39
0.037338417 0.037064381 0.51700002 6.7273957e-39
0.039140183 0.03646379 0.51700002 7.2809282e-39
0.041962948 0.036223557 0.51700002 8.3872758e-39
0.04406501 0.036223557 0.51700002 9.2166777e-39
0.046577286 0.036215592 0.51688892 9.1248394e-39
0.049434558 0.036153492 0.51600003 8.204681e-39
0.051532548 0.036153492 0.51600003 8.019931e-39
0.054050144 0.036153492 0.51600003 7.7433441e-39
0.056895167 0.036095377 0.51516676 6.7288362e-39
0.058970824 0.036083426 0.51500005 7.5585955e-39
0.061483532 0.036585968 0.51500005 7.9270123e-39
-0.011008944 0.03958685 0.51700002 5.8075904e-39
-0.008626611 0.039026301 0.51700002 4.8856369e-39
-0.0072252383 0.03958685 0.51700002 4.4246588e-39
0.00034217478 0.03958685 0.51700002 3.871485e-39
0.032293476 0.03958685 0.51700002 4.5172257e-39
0.034535669 0.039026301 0.51700002 4.9782025e-39
0.036497593 0.038746029 0.51700002 4.4243098e-39
0.039020065 0.038746029 0.51700002 5.1607931e-39
0.041922361 0.038707744 0.5165 7.8344635e-39
0.044022389 0.038707744 0.5165 8.3883562e-39
0.046512112 0.038683306 0.51616669 7.8351782e-39
0.049434554 0.038671084 0.51600003 7.0057861e-39
0.051532548 0.038671084 0.51600003 8.0199338e-39
0.054050144 0.038671084 0.51600003 8.5727474e-39
0.056987334 0.038671084 0.51600003 7.558234e-39
0.059056297 0.038652755 0.51575005 8.1110462e-39
0.061483532 0.038596138 0.51500005 8.4794658e-39
0.064415038 0.038596138 0.51500005 7.7419022e-39
0.066229768 0.03887533 0.51500005 8.755694e-39
0.0681841 0.03943371 0.51500005 9.0319207e-39
-0.016474299 0.041268498 0.51700002 5.2540649e-39
-0.014372239 0.040848084 0.51700002 6.1763743e-39
-0.011261192 0.040932167 0.51700002 5.7153962e-39
-0.0089029856 0.040828127 0.51675004 5.4388107e-39
-0.0067951581 0.040788624 0.51625001 4.5168544e-39
-0.0038544734 0.040769078 0.51600003 3.5027025e-39
-0.0013371228 0.040788624 0.51625001 3.7792893e-39
0.00076184917 0.040808175 0.5165 3.7792893e-39
0.0036983024 0.041188676 0.51600003 3.6870937e-39
0.0062158946 0.041188676 0.51600003 3.5034241e-39
0.0087396698 0.041215282 0.51633334 3.4112299e-39
0.011681985 0.040808175 0.5165 3.5034255e-39
0.013795353 0.040848084 0.51700002 3.4112299e-39
0.016107619 0.041058291 0.51700002 3.5959841e-39
0.02893018 0.041268498 0.51700002 4.9785584e-39
0.031620819 0.040932167 0.51700002 5.0711156e-39
0.034395535 0.040848084 0.51700002 5.0707526e-39
0.036497593 0.040848084 0.51700002 5.1618693e-39
0.038956895 0.040782109 0.51616669 7.4649551e-39
0.041881777 0.040769078 0.51600003 7.8344565e-39
0.043979771 0.040769078 0.51600003 6.8221081e-39
0.046497364 0.040769078 0.51600003 5.5317308e-39
0.049434554 0.040769078 0.51600003 6.0834696e-39
0.051532548 0.040769078 0.51600003 6.7291964e-39
0.054050148 0.040769078 0.51600003 7.742991e-39
0.056987334 0.040769078 0.51600003 7.8348223e-39
0.059085328 0.040769078 0.51600003 8.1114078e-39
0.061562851 0.040743012 0.51566672 7.7418994e-39
0.064415038 0.040690064 0.51500005 8.3872674e-39
0.066508964 0.040690064 0.51500005 8.3872702e-39
0.06860289 0.040690064 0.51500005 8.9404425e-39
-0.02151924 0.044631794 0.51700002 5.9930635e-39
-0.01899677 0.043896072 0.51700002 4.7945245e-39
-0.016474297 0.04379097 0.51700002 4.7941671e-39
-0.01437224 0.04379097 0.51700002 5.070754e-39
-0.01141498 0.043734144 0.51633334 4.5175817e-39
-0.0088896574 0.043706268 0.51600003 3.9644079e-39
-0.0067916643 0.043706268 0.51600003 3.6878196e-39
-0.0038513343 0.043668076 0.51555562 3.3186755e-39
-0.0013351546 0.043649256 0.51533335 3.2264785e-39
0.00076012826 0.043649256 0.51533335 3.0420872e-39
0.0036935238 0.043649256 0.51533341 2.949893e-39
0.0062078633 0.043649256 0.51533335 2.8580575e-39
0.0083031459 0.043649256 0.51533341 2.8580575e-39
0.011239145 0.043658666 0.51544452 3.0428089e-39
0.013759774 0.04367749 0.51566672 2.9502531e-39
0.016046956 0.043585453 0.51600003 2.4896351e-39
0.018913716 0.043821149 0.51612502 3.0428103e-39
0.021342376 0.043748077 0.5165 3.9644065e-39
0.023632035 0.04364619 0.51671427 4.7934483e-39
0.026474502 0.043831937 0.51625001 4.7008925e-39
0.028892873 0.043733958 0.51633334 5.1618707e-39
0.031425972 0.043752965 0.51655555 5.3476983e-39
0.034329008 0.043706268 0.51600003 5.5317294e-39
0.036426999 0.043706268 0.51600003 5.2544264e-39
0.038944591 0.043706268 0.51600003 5.8065184e-39
0.041881774 0.043706268 0.51600003 5.8057967e-39
0.043979775 0.043706268 0.51600003 4.7923693e-39
0.04649736 0.043706268 0.51600003 3.5956296e-39
0.049434554 0.043706268 0.51600003 4.240999e-39
0.051549464 0.043720651 0.51616669 5.5306574e-39
0.054108515 0.04375387 0.51655555 6.9132289e-39
0.056947269 0.043572638 0.51639998 6.360774e-39
0.058877569 0.043850821 0.51628572 6.2689371e-39
0.061602917 0.043706268 0.51600003 7.0972572e-39
0.064519122 0.043692421 0.51583338 7.3734826e-39
0.066530205 0.043635949 0.51516676 7.8344593e-39
0.06860289 0.043621566 0.51500005 8.6638585e-39
0.071534388 0.043621566 0.51500005 7.7429826e-39
-0.023200886 0.047154263 0.51700002 6.4529626e-39
-0.021939652 0.046313439 0.51700002 6.637714e-39
-0.01899677 0.046313446 0.51700002 6.545517e-39
-0.016474297 0.046313439 0.51700002 6.729911e-39
-0.014358746 0.046268649 0.5165 7.4671145e-39
-0.01140725 0.04622386 0.51600003 6.5444394e-39
-0.0088857571 0.046201058 0.51575005 5.8083149e-39
-0.0067785019 0.046134278 0.51500005 5.7161206e-39
-0.0038470037 0.046134278 0.51500005 4.9789157e-39
-0.001334291 0.046134278 0.51500005 5.0711114e-39
0.00075963658 0.046134278 0.51500005 4.7023288e-39
0.003691135 0.046134278 0.51500005 4.4261007e-39
0.0062038479 0.046134278 0.51500005 3.8725682e-39
0.0082977749 0.046134278 0.51500005 3.5959827e-39
0.011229273 0.04529671 0.51500005 2.8584191e-39
0.013741986 0.045296706 0.51500005 2.6740278e-39
0.015835913 0.045296706 0.51500005 2.3052453e-39
0.018934926 0.045966763 0.51500005 3.2272016e-39
0.021280125 0.046134278 0.51500005 3.6881797e-39
0.023374051 0.046134278 0.51500005 4.1487977e-39
0.026305551 0.046134274 0.51500005 4.6094158e-39
0.028846243 0.046178259 0.51550007 4.8856439e-39
0.030942202 0.046178259 0.51550007 5.0711128e-39
0.033909407 0.04622386 0.51600003 5.7164808e-39
0.036426999 0.04622386 0.51600003 5.439175e-39
0.038944587 0.04622386 0.51600003 4.424307e-39
0.041881777 0.04622386 0.51600003 4.9774794e-39
0.043979771 0.04622386 0.51600003 4.4250245e-39
0.046497364 0.04622386 0.51600003 3.7800152e-39
0.049482457 0.046269465 0.5165 4.425386e-39
0.051632419 0.046313442 0.51700002 4.7016156e-39
0.054154888 0.046313439 0.51700002 6.3604181e-39
0.05667736 0.046313439 0.51700002 6.5458827e-39
0.057938598 0.046313439 0.51700002 5.9930677e-39
0.061241992 0.046269059 0.5165 6.1767401e-39
0.064540103 0.04622386 0.51600003 6.6373609e-39
0.066638105 0.04622386 0.51600003 7.0979775e-39
0.069043733 0.046149477 0.5151667 8.0192121e-39
0.071953177 0.046134278 0.51500005 8.0192107e-39
-0.025723359 0.048835911 0.51700002 9.0333655e-39
-0.02404171 0.048415501 0.51700002 8.8493287e-39
-0.021939654 0.048415497 0.51700002 8.5723817e-39
-0.01899677 0.048415497 0.51700002 8.941523e-39
-0.016466737 0.048391886 0.51674998 8.1121238e-39
-0.01434444 0.048321858 0.51600003 8.4812637e-39
-0.01140725 0.048321858 0.51600003 7.8355355e-39
-0.0084536448 0.048228204 0.51500005 6.637714e-39
-0.0067785024 0.048228204 0.51500005 7.6511457e-39
-0.0040145172 0.048144449 0.51500005 6.4526067e-39
-0.0021718619 0.047809418 0.51500005 6.3614901e-39
0.026305549 0.047809418 0.51500005 4.333189e-39
0.028818265 0.048228204 0.51500005 4.8863628e-39
0.030912191 0.048228204 0.51500005 5.5317322e-39
0.033865865 0.04825915 0.51533335 6.084906e-39
0.036426999 0.048321858 0.51600003 6.5444422e-39
0.038944591 0.048321854 0.51600003 6.7284691e-39
0.041881777 0.048321854 0.51600003 4.7005366e-39
0.043979771 0.048321854 0.51600003 4.700538e-39
0.046542961 0.048368812 0.5165 4.3331918e-39
0.049530357 0.048415497 0.51700002 5.9001518e-39
0.051352143 0.048275363 0.51700002 4.7941685e-39
0.054154892 0.048415497 0.51700002 5.0707596e-39
0.05667736 0.048415497 0.51700002 6.2696574e-39
0.057938598 0.048415497 0.51700002 6.085622e-39
0.061049648 0.048331417 0.51700002 5.8083177e-39
0.063901819 0.048368812 0.5165 5.1625937e-39
0.066638105 0.048321854 0.51600003 6.4526095e-39
0.069088139 0.048275169 0.51550007 7.5585955e-39
0.071953177 0.048228204 0.51500005 7.4663985e-39
0.073767908 0.048367798 0.51500005 7.2820072e-39
-0.023761436 0.050797835 0.51700002 1.0508487e-38
-0.02193965 0.051358383 0.51700002 1.0969825e-38
-0.018996768 0.051358383 0.51700002 1.0140428e-38
-0.016469261 0.051342096 0.51683336 1.0232625e-38
-0.014344439 0.051259045 0.51600003 1.1247134e-38
-0.01140725 0.051259045 0.51600003 1.0601046e-38
-0.0084536448 0.051159706 0.51500005 1.0140429e-38
-0.0067785024 0.051159706 0.51500005 1.0325179e-38
-0.0046845744 0.051159699 0.51500005 1.0417016e-38
0.030912189 0.051159706 0.51500005 5.716122e-39
0.033843689 0.051159706 0.51500005 6.730274e-39
0.036415506 0.051242486 0.51583338 7.3745574e-39
0.038944587 0.051259045 0.51600003 6.7281062e-39
0.041895438 0.051275868 0.51616669 4.8845677e-39
0.04405107 0.051342096 0.51683336 5.0696792e-39
0.046482369 0.051253278 0.51700002 4.3335519e-39
0.049390223 0.050797835 0.51700002 4.6101374e-39
0.050791595 0.050517559 0.51700002 4.9789185e-39
0.061442029 0.050797835 0.51700002 5.716485e-39
0.0636262 0.05122431 0.51685709 5.1625951e-39
0.06611108 0.051316269 0.5165714 5.0703995e-39
0.06900093 0.05135306 0.51610005 5.3469836e-39
0.07192497 0.051032253 0.51540005 6.9139478e-39
0.07384818 0.051308207 0.51528579 5.9919901e-39
0.076440156 0.051399011 0.51500005 6.2685812e-39
-0.02151924 0.053040028 0.51700002 9.9545931e-39
-0.01899677 0.053880855 0.51700002 1.0969827e-38
-0.016474299 0.053880855 0.51700002 1.0693603e-38
-0.014358746 0.053828746 0.5165 1.1062025e-38
-0.011407249 0.053776637 0.51600003 1.1614836e-38
-0.0086677503 0.053698879 0.51525009 1.1061662e-38
-0.0067785024 0.053672414 0.51500005 1.1707392e-38
-0.0044053844 0.053951606 0.51500005 1.1799589e-38
0.030912191 0.053672414 0.51500005 5.7161206e-39
0.033854913 0.053690057 0.5151667 6.1770988e-39
0.036426999 0.053776637 0.51600003 6.8217465e-39
0.038957443 0.05379428 0.51616669 6.2682112e-39
0.041962944 0.053880855 0.51700002 4.7012541e-39
0.043784734 0.05360058 0.51700002 4.8856481e-39
0.045746654 0.053040028 0.51700002 5.070754e-39
0.065506011 0.053040028 0.51700002 4.7941728e-39
0.068669744 0.053746078 0.51685709 5.0703995e-39
0.07120534 0.054126933 0.51666665 5.5313777e-39
0.072932079 0.053776637 0.51600003 5.7161262e-39
0.076214343 0.05372493 0.51550007 5.8079631e-39
0.07949131 0.053672414 0.51500005 6.2692972e-39
0.080747664 0.054509986 0.51500005 6.9146666e-39
-0.018786563 0.055772707 0.51700002 9.8613255e-39
-0.016474299 0.056403328 0.51700002 9.8620457e-39
-0.01437224 0.056403328 0.51700002 1.0046438e-38
-0.011409886 0.056306534 0.51611114 1.1337532e-38
-0.0088870572 0.056276318 0.51583338 1.1245335e-38
-0.0067808311 0.056203578 0.5151667 1.1614117e-38
-0.0039516995 0.056289826 0.51500005 1.1337532e-38
-0.0021718619 0.056603916 0.51500005 1.179851e-38
0.026724335 0.057022698 0.51500005 6.8221053e-39
0.02898578 0.056352645 0.51500005 5.9916257e-39
0.030922331 0.056203585 0.5151667 5.622846e-39
0.033902284 0.056282289 0.51588893 6.1767387e-39
0.036439035 0.056312684 0.51616669 6.084543e-39
0.038905732 0.056284789 0.51687503 5.4395338e-39
0.041962944 0.055562504 0.51700002 4.425386e-39
0.069289714 0.055562504 0.51700002 5.5317378e-39
0.07097137 0.055562504 0.51700002 5.4395422e-39
0.073213555 0.055842776 0.51700002 5.9005203e-39
0.075979345 0.056271356 0.51674998 6.545524e-39
0.078647874 0.056190629 0.5161429 7.3752804e-39
0.081053697 0.056232352 0.51542866 8.204681e-39
0.083705842 0.056761961 0.51516676 8.8493301e-39
-0.015633475 0.058925796 0.51700002 9.5854602e-39
-0.014232102 0.059206069 0.51700002 9.8620471e-39
-0.011425943 0.059327215 0.51683336 1.0230465e-38
-0.0088896574 0.059231419 0.51600003 1.0599969e-38
-0.0067916638 0.059231415 0.51600003 1.1153143e-38
-0.0038485199 0.059135899 0.5151667 9.9538826e-39
-0.001334291 0.059116632 0.51500005 1.1060946e-38
0.00062004145 0.059256226 0.51500005 9.6787349e-39
0.003691135 0.059535414 0.51500005 1.0324107e-38
0.0070414185 0.059535414 0.51500005 1.1523003e-38
0.0082977749 0.059535414 0.51500005 1.1337893e-38
0.010391702 0.059535414 0.51500005 1.023083e-38
0.022117697 0.059535414 0.51500005 6.7284747e-39
0.023374053 0.059116632 0.51500005 6.452248e-39
0.026322847 0.059155162 0.51533341 6.8210291e-39
0.02886064 0.059202924 0.51575005 6.913582e-39
0.031236464 0.059338462 0.51620001 1.0783999e-38
0.034117322 0.059216537 0.51660001 8.0192093e-39
0.036217317 0.059206069 0.51700002 6.8210291e-39
0.079379603 0.058925796 0.51700002 7.5589542e-39
0.081271455 0.059136 0.51700002 6.9135848e-39
0.084125414 0.059170943 0.51620001 7.9277396e-39
0.086484537 0.059174433 0.51550007 7.6515114e-39
0.088621594 0.059573948 0.51533335 7.8355397e-39
0.0041099205 0.060372982 0.51500005 9.8638478e-39
0.0064875954 0.060971525 0.51533335 1.1152423e-38
0.0083058309 0.061270796 0.51550007 1.1152782e-38
0.011229273 0.061210558 0.51500005 9.4007074e-39
0.013741985 0.061210554 0.51500005 9.0322837e-39
0.015835913 0.061210554 0.51500005 9.1248366e-39
0.018767411 0.061210554 0.51500005 8.2032432e-39
0.021290863 0.061240673 0.51525009 8.2028817e-39
0.023671847 0.061497904 0.51600003 7.7415462e-39
0.026545227 0.061209768 0.51639998 7.6493506e-39
0.028649906 0.061167996 0.51700002 8.387273e-39
0.031452652 0.060607444 0.51700002 8.7556968e-39
0.033975121 0.060607444 0.51700002 7.3720462e-39
0.086106189 0.060607444 0.51700002 7.1916123e-39
0.088122934 0.061389655 0.5165 7.9284528e-39
0.091138341 0.061398588 0.51557148 7.3745588e-39
0.094567582 0.062048126 0.51500005 6.8228241e-39
0.012090275 0.063007809 0.51600003 1.2075098e-38
0.013782825 0.063068867 0.5165 1.1429729e-38
0.015866663 0.063007809 0.51600003 9.9538742e-39
0.018803854 0.063007809 0.51600003 9.3085048e-39
0.021321446 0.063007809 0.51600003 9.6776503e-39
0.023885237 0.063129917 0.51700002 8.1099686e-39
0.089469485 0.063129917 0.51700002 7.3742e-39
0.091652364 0.063369483 0.51666671 6.8210263e-39
0.09358301 0.063489273 0.5165 6.9150212e-39
0.096136943 0.063758388 0.51612502 6.3618502e-39
0.098571725 0.064065136 0.51550007 6.8224696e-39
0.10063491 0.064323433 0.51533341 7.1912507e-39
0.10252451 0.064560838 0.51500005 7.6515058e-39
0.099559367 0.066493213 0.51700002 6.7306355e-39
0.10145547 0.066730611 0.51666665 6.7306355e-39
0.10351536 0.066946253 0.51660001 7.190892e-39
0.10612486 0.066623107 0.51540005 6.6380769e-39
0.10849273 0.06671989 0.51550007 6.7302726e-39
0.11058869 0.06671989 0.51550007 6.8221067e-39
0.11366886 0.066623107 0.51540005 6.8210291e-39
0.11603819 0.06671989 0.51550007 7.2823645e-39
0.11840882 0.066816673 0.51560009 7.1905291e-39
0.12102935 0.06683778 0.51533341 6.8224696e-39
0.12262621 0.067073554 0.51500005 6.9143121e-39
0.10670637 0.068174861 0.51700002 7.2834464e-39
0.10880843 0.068174861 0.51700002 6.6380755e-39
0.1113309 0.069015682 0.51700002 7.3756406e-39
0.11384568 0.068742022 0.51620001 7.9277354e-39
0.11626329 0.068949744 0.5165 7.6507897e-39
0.1188983 0.069015682 0.51700002 7.5593116e-39
0.12178206 0.068982713 0.51674998 6.822471e-39
0.12382338 0.068949744 0.5165 7.0065035e-39
0.12555771 0.067911126 0.51500005 8.7571387e-39
0.024146453 0.0010812951 0.51900005 7.5585983e-39
0.026931904 0.00091247982 0.51900005 6.3607726e-39
0.028620059 0.00091247988 0.51900005 4.9778381e-39
0.031405509 0.0010812951 0.51900005 4.5168614e-39
0.034528594 0.0017565562 0.51900005 4.6086969e-39
0.035794709 0.0017565562 0.51900005 4.1491579e-39
0.021445408 0.0030226707 0.51900005 1.060105e-38
0.023977637 0.0030226707 0.51900005 9.0326494e-39
0.026931904 0.0030226707 0.51900005 7.28201e-39
0.028620059 0.0030226707 0.51900005 6.453327e-39
0.031543907 0.0030193522 0.51850003 5.5317322e-39
0.034512166 0.0030210116 0.51875007 4.9781955e-39
0.036216747 0.0030226707 0.51900005 4.6101318e-39
0.038748976 0.0030226707 0.51900005 4.6101318e-39
0.04057781 0.00316335 0.51900005 4.7945245e-39
0.042547319 0.0034447091 0.51900005 4.2424325e-39
0.021445408 0.0059769382 0.51900005 1.04163e-38
0.023977637 0.0059769382 0.51900005 9.8631261e-39
0.026914336 0.0059728283 0.51866668 9.0337256e-39
0.028986135 0.0059654214 0.51800007 7.6511499e-39
0.031513486 0.0059654214 0.51800007 6.5448023e-39
0.034462065 0.0059654214 0.51800007 6.821385e-39
0.036568187 0.0055441968 0.51800001 5.8072359e-39
0.03909554 0.0059654219 0.51800007 5.4384534e-39
0.041649133 0.0059687183 0.51833338 5.3469794e-39
0.043728791 0.005852601 0.51871437 4.7019701e-39
0.046345662 0.0063989763 0.51900005 3.6881783e-39
0.047611777 0.0068210145 0.51900005 3.0449683e-39
0.023977637 0.0085091675 0.51900005 9.1255625e-39
0.026905552 0.00850097 0.51850003 8.8493385e-39
0.028986137 0.0084927715 0.51800001 8.3887177e-39
0.031344995 0.0083242822 0.51800001 7.4660411e-39
0.044150237 0.0076503218 0.51800001 5.2544236e-39
0.046256363 0.0084927715 0.51800001 4.7941629e-39
0.048432916 0.0085046617 0.51875007 3.7810956e-39
0.050425366 0.0087905265 0.51900005 3.5045115e-39
0.024399675 0.010619358 0.51900005 8.2036076e-39
0.026931904 0.010619358 0.51900005 8.1110574e-39
0.028986137 0.010598897 0.51800001 8.2961662e-39
0.03109226 0.010598898 0.51800001 7.9270235e-39
0.048362486 0.010177672 0.51800001 5.1625853e-39
0.050922856 0.010605447 0.51833338 4.5175775e-39
0.053916566 0.010614039 0.51875007 2.9513364e-39
0.056052536 0.011041396 0.51900005 2.6747537e-39
0.058162726 0.011041396 0.51900005 2.2155748e-39
0.024821714 0.012729549 0.51900005 8.2958032e-39
0.026931904 0.013573625 0.51900005 8.2958032e-39
0.029013304 0.013560548 0.51850003 7.4660425e-39
0.031092258 0.013547472 0.51800007 7.8348237e-39
0.051732287 0.012705022 0.51800001 4.7923665e-39
0.053978819 0.012985838 0.51800001 4.1484376e-39
0.05594454 0.013126247 0.51800001 3.7800166e-39
0.058522239 0.013558554 0.51844448 3.5048703e-39
0.061499506 0.013564366 0.51866674 2.2155748e-39
0.063227184 0.013784644 0.51900005 2.3077704e-39
0.066181451 0.013995663 0.51900005 2.1237379e-39
0.069135718 0.013995663 0.51900005 2.1244568e-39
0.070401832 0.014417701 0.51900005 2.216651e-39
0.073356099 0.014417701 0.51900005 2.3088494e-39
0.027353944 0.015261779 0.51900005 8.7567786e-39
0.028816681 0.016098503 0.51875007 8.2958004e-39
0.031523354 0.016080266 0.51816672 8.3879946e-39
0.059314337 0.015232372 0.51800001 3.4123173e-39
0.061841685 0.015232372 0.51800001 3.0446138e-39
0.063526586 0.015232372 0.51800001 2.4921589e-39
0.066053934 0.016074821 0.51800007 2.1230176e-39
0.069002509 0.016074821 0.51800001 2.2155748e-39
0.070873037 0.016365441 0.51833338 2.2159349e-39
0.073707066 0.016089525 0.51850003 2.1244596e-39
0.076732405 0.016105855 0.51900005 2.2166566e-39
0.077998519 0.016949931 0.51900005 2.2166566e-39
0.029042097 0.018216046 0.51900005 9.1248422e-39
0.031543363 0.018198632 0.51850003 9.494338e-39
0.034040838 0.018180948 0.51800001 8.0184905e-39
0.066896386 0.017759722 0.51800001 2.5836384e-39
0.069002509 0.017759722 0.51800001 2.3992472e-39
0.071108639 0.017759722 0.51800001 2.3992472e-39
0.073635988 0.018180946 0.51800007 2.307769e-39
0.076584563 0.018180948 0.51800001 2.0322625e-39
0.078690685 0.018180948 0.51800001 2.1244582e-39
0.081296436 0.01819809 0.51850003 2.1244582e-39
0.084415883 0.018344754 0.51866668 2.3092095e-39
0.086439289 0.018638084 0.51900005 2.3092081e-39
0.031855684 0.020888954 0.51900005 8.9404496e-39
0.034473017 0.021136591 0.51816672 8.8482553e-39
0.036287371 0.021691157 0.51800001 9.401069e-39
0.07447844 0.020287072 0.51800001 3.2293596e-39
0.081218034 0.020287072 0.51800001 2.0319024e-39
0.084166616 0.020287072 0.51800001 1.8478713e-39
0.086272739 0.020287072 0.51800001 2.0322625e-39
0.088378862 0.020287072 0.51800001 2.401045e-39
0.034669276 0.023421183 0.51900005 9.2177581e-39
0.036585428 0.023668695 0.51824999 9.4936205e-39
0.0385339 0.023937687 0.51800001 9.6780104e-39
0.12418299 0.024499321 0.51800001 4.7041379e-39
0.034950633 0.025390694 0.51900005 9.3088733e-39
0.036602672 0.025787864 0.51850003 9.4936191e-39
0.039095536 0.025762996 0.51800007 9.7698459e-39
0.12418299 0.025341772 0.51800001 4.7952546e-39
0.036216747 0.028766999 0.51900005 9.0326424e-39
0.039120156 0.028730048 0.51833338 8.940444e-39
0.041833498 0.028922185 0.51800001 9.032641e-39
0.034950633 0.032143302 0.51900005 8.387996e-39
0.036216747 0.031299226 0.51900005 8.9408111e-39
0.039107844 0.031248704 0.51816672 8.8486099e-39
0.042044114 0.031238925 0.51800001 8.8486099e-39
0.0324184 0.033831455 0.51900005 7.1894529e-39
0.034528594 0.033409417 0.51900005 7.9270193e-39
0.036392465 0.033376828 0.51850003 8.4805574e-39
0.039095536 0.033345047 0.51800007 8.2961605e-39
0.041622888 0.032923821 0.51800001 9.125917e-39
-0.024134716 0.037207764 0.51900005 7.9280885e-39
0.016380949 0.037207764 0.51900005 4.0565993e-39
0.029042097 0.037207764 0.51900005 5.3473465e-39
0.031672027 0.036460236 0.51887506 5.8997972e-39
0.034473017 0.036305029 0.51816672 6.3604139e-39
0.0363997 0.036125135 0.51800001 6.5451638e-39
0.03867431 0.035451174 0.51800001 8.2950787e-39
-0.028355096 0.039739992 0.51900005 8.4812637e-39
-0.026104227 0.039177272 0.51900005 8.2046768e-39
-0.024134716 0.038895916 0.51900005 8.2968696e-39
-0.021793101 0.03927967 0.51850003 7.9280871e-39
-0.018612288 0.039663423 0.51800001 7.4671089e-39
-0.016506163 0.039663423 0.51800001 7.0983278e-39
-0.013810324 0.038989462 0.51800001 6.2685686e-39
0.013834565 0.039701708 0.51850003 3.4112299e-39
0.016354917 0.03883319 0.51816672 4.2409934e-39
0.019194536 0.039177272 0.51900005 4.4257476e-39
0.02060133 0.039739992 0.51900005 5.7161234e-39
0.026931904 0.039739992 0.51900005 4.5175831e-39
0.028620059 0.038895916 0.51900005 4.8863684e-39
0.031344995 0.03865248 0.51800001 5.162235e-39
0.034040838 0.037978522 0.51800001 5.6228488e-39
-0.032575477 0.041428145 0.51900005 4.5172257e-39
-0.030324608 0.041146785 0.51900005 4.7934455e-39
-0.029199174 0.041006107 0.51900005 5.253702e-39
-0.026640981 0.04096647 0.51850003 5.6232019e-39
-0.024100248 0.040946648 0.51824999 6.0841815e-39
-0.021560863 0.040927097 0.51800007 6.3607698e-39
-0.018612288 0.040927097 0.51800001 6.4526053e-39
-0.016506163 0.040505871 0.51800001 7.2827205e-39
-0.013136364 0.040505871 0.51800001 6.4529598e-39
0.016770612 0.040505871 0.51800001 4.0566049e-39
0.019307479 0.040946648 0.51824999 4.2409962e-39
0.021213727 0.040966198 0.51850003 5.2551453e-39
0.023954539 0.040966198 0.51850003 4.9785584e-39
0.026892781 0.040946648 0.51824999 4.793807e-39
0.028986137 0.040505871 0.51800001 4.8863628e-39
0.030671036 0.040505871 0.51800001 4.7023317e-39
-0.036233142 0.04452309 0.51900005 6.2700119e-39
-0.033314042 0.044065882 0.51900005 5.5328098e-39
-0.03066143 0.043727774 0.51875007 5.1633084e-39
-0.029491147 0.044060778 0.51820004 5.1633084e-39
-0.026615562 0.043875668 0.51800007 4.7019701e-39
-0.024088213 0.043875676 0.51800007 4.333189e-39
-0.022066334 0.043707184 0.51800001 4.7941671e-39
