ply
format ascii 1.0
comment PCL generated
element vertex 957
property float x
property float y
property float z
property uchar red
property uchar green
property uchar blue
element camera 0
property float view_px
property float view_py
property float view_pz
property float x_axisx
property float x_axisy
property float x_axisz
property float y_axisx
property float y_axisy
property float y_axisz
property float z_axisx
property float z_axisy
property float z_axisz
property float focal
property float scalex
property float scaley
property float centerx
property float centery
property int viewportx
property int viewporty
property float k1
property float k2
end_header
-0.038804203 -0.0039398354 0.05005604 229 144 101
-0.037867557 -0.003885204 0.051056087 229 144 101
-0.036934163 -0.003830567 0.052056074 229 144 101
-0.036004022 -0.0037759356 0.053056061 229 144 101
-0.034280088 -0.0037759356 0.053056061 229 144 101
-0.033418123 -0.0037759356 0.053056061 229 144 101
-0.032496117 -0.0037213005 0.054056048 229 144 101
-0.030775439 -0.0037213005 0.054056048 229 144 101
-0.029859934 -0.0036666654 0.055056095 229 144 101
-0.029001221 -0.0036666654 0.055056095 229 144 101
-0.028142506 -0.0036666654 0.055056095 229 144 101
-0.02642508 -0.0036666654 0.055056095 229 144 101
-0.025566366 -0.0036666654 0.055056095 229 144 101
-0.024707653 -0.0036666654 0.055056095 229 144 101
-0.022990225 -0.0036666654 0.055056095 229 144 101
-0.022131512 -0.0036666654 0.055056095 229 144 101
-0.021272799 -0.0036666654 0.055056095 229 144 101
-0.020451359 -0.0037213005 0.054056048 229 144 101
-0.01873068 -0.0037213005 0.054056048 229 144 101
-0.017870339 -0.0037213005 0.054056048 229 144 101
-0.01701 -0.0037213005 0.054056048 229 144 101
-0.015316837 -0.0037759338 0.053056061 229 144 101
-0.01445487 -0.0037759338 0.053056061 229 144 101
-0.013617169 -0.0038305651 0.052056074 229 144 101
-0.012753576 -0.0038305651 0.052056074 229 144 101
-0.011045775 -0.0038852021 0.051056087 229 144 101
-0.042505383 -0.0032320134 0.047056079 229 144 101
-0.041481044 -0.0031259991 0.049056053 229 144 101
-0.040537894 -0.0030729901 0.05005604 229 144 101
-0.038732775 -0.0030199848 0.051056087 229 144 101
-0.037867557 -0.0030199848 0.051056087 229 144 101
-0.036934163 -0.0029669758 0.052056074 229 144 101
-0.036004022 -0.0029139705 0.053056061 229 144 101
-0.034280088 -0.0029139705 0.053056061 229 144 101
-0.033356454 -0.0028609615 0.054056048 229 144 101
-0.032496117 -0.0028609615 0.054056048 229 144 101
-0.030775439 -0.0028609615 0.054056048 229 144 101
-0.029859934 -0.0028079525 0.055056095 229 144 101
-0.029001221 -0.0028079525 0.055056095 229 144 101
-0.028142506 -0.0028079525 0.055056095 229 144 101
-0.02642508 -0.0028079525 0.055056095 229 144 101
-0.025566366 -0.0028079525 0.055056095 229 144 101
-0.024707653 -0.0028079525 0.055056095 229 144 101
-0.022990225 -0.0028079525 0.055056095 229 144 101
-0.022131512 -0.0028079525 0.055056095 229 144 101
-0.021272799 -0.0028079525 0.055056095 229 144 101
-0.020414084 -0.0028079525 0.055056095 229 144 101
-0.01873068 -0.0028609615 0.054056048 229 144 101
-0.017870339 -0.0028609615 0.054056048 229 144 101
-0.01701 -0.0028609615 0.054056048 229 144 101
-0.015289321 -0.0028609596 0.054056048 229 144 101
-0.01445487 -0.0029139686 0.053056061 229 144 101
-0.013592905 -0.0029139686 0.053056061 229 144 101
-0.012730939 -0.0029139686 0.053056061 229 144 101
-0.011026391 -0.0029669739 0.052056074 229 144 101
-0.010180556 -0.0030199829 0.051056087 229 144 101
0.037171938 -0.0022248626 0.066056073 229 144 101
0.038853582 -0.0022248626 0.066056073 229 144 101
0.039616212 -0.0021718573 0.06705606 229 144 101
0.040455408 -0.0021718573 0.06705606 229 144 101
0.042050727 -0.0021188483 0.068056047 229 144 101
0.042888299 -0.0021188483 0.068056047 229 144 101
0.043725867 -0.0021188483 0.068056047 229 144 101
0.044563439 -0.0021188483 0.068056047 229 144 101
0.046147376 -0.0020658374 0.069056094 229 144 101
0.04698332 -0.0020658374 0.069056094 229 144 101
0.047819264 -0.0020658374 0.069056094 229 144 101
0.049491152 -0.0020658374 0.069056094 229 144 101
0.0503271 -0.0020658374 0.069056094 229 144 101
0.051163044 -0.0020658374 0.069056094 229 144 101
0.051998988 -0.0020658374 0.069056094 229 144 101
0.053776719 -0.0021188464 0.068056047 229 144 101
0.054614291 -0.0021188464 0.068056047 229 144 101
0.055451863 -0.0021188464 0.068056047 229 144 101
0.056621604 -0.0022778697 0.065056086 229 144 101
-0.042583317 -0.002411671 0.046056092 229 144 101
-0.041557353 -0.0023089088 0.048056066 229 144 101
-0.040537894 -0.0022061449 0.05005604 229 144 101
-0.038732775 -0.0021547657 0.051056087 229 144 101
-0.037867557 -0.0021547657 0.051056087 229 144 101
-0.036934163 -0.0021033827 0.052056074 229 144 101
-0.036004022 -0.0020520035 0.053056061 229 144 101
-0.034280088 -0.0020520035 0.053056061 229 144 101
-0.033356454 -0.0020006206 0.054056048 229 144 101
-0.032496117 -0.0020006206 0.054056048 229 144 101
-0.030775439 -0.0020006206 0.054056048 229 144 101
-0.013592905 -0.0020520017 0.053056061 229 144 101
-0.012730939 -0.0020520017 0.053056061 229 144 101
-0.011007006 -0.0020520017 0.053056061 229 144 101
-0.010162799 -0.0021033809 0.052056074 229 144 101
-0.0093153371 -0.0021547638 0.051056087 229 144 101
-0.0075848997 -0.0021547638 0.051056087 229 144 101
0.037171938 -0.0013840385 0.066056073 229 144 101
0.038853582 -0.0013840385 0.066056073 229 144 101
0.039616212 -0.0013326593 0.06705606 229 144 101
0.040455408 -0.0013326593 0.06705606 229 144 101
0.042050727 -0.0012812782 0.068056047 229 144 101
0.042888299 -0.0012812782 0.068056047 229 144 101
0.043725867 -0.0012812782 0.068056047 229 144 101
0.044563439 -0.0012812782 0.068056047 229 144 101
0.046147376 -0.0012298953 0.069056094 229 144 101
0.04698332 -0.0012298953 0.069056094 229 144 101
0.047819264 -0.0012298953 0.069056094 229 144 101
0.049491152 -0.0012298953 0.069056094 229 144 101
0.0503271 -0.0012298953 0.069056094 229 144 101
0.051163044 -0.0012298953 0.069056094 229 144 101
0.051998988 -0.0012298953 0.069056094 229 144 101
0.053776719 -0.0012812763 0.068056047 229 144 101
0.054614291 -0.0012812763 0.068056047 229 144 101
0.055451863 -0.0012812763 0.068056047 229 144 101
0.056400158 -0.0013326574 0.06705606 229 144 101
-0.042739183 -0.0016378295 0.044056058 229 144 101
-0.041557353 -0.0014388096 0.048056066 229 144 101
-0.040612575 -0.0013890564 0.049056053 229 144 101
-0.029859934 -0.0010905247 0.055056095 229 144 101
-0.029001221 -0.0010905247 0.055056095 229 144 101
-0.028142506 -0.0010905247 0.055056095 229 144 101
-0.02642508 -0.0010905247 0.055056095 229 144 101
-0.025566366 -0.0010905247 0.055056095 229 144 101
-0.024707653 -0.0010905247 0.055056095 229 144 101
-0.022990225 -0.0010905247 0.055056095 229 144 101
-0.022131512 -0.0010905247 0.055056095 229 144 101
-0.021272799 -0.0010905247 0.055056095 229 144 101
-0.020414084 -0.0010905247 0.055056095 229 144 101
-0.018696658 -0.0010905247 0.055056095 229 144 101
-0.017837944 -0.0010905247 0.055056095 229 144 101
-0.016979231 -0.0010905247 0.055056095 229 144 101
-0.015261805 -0.0010905229 0.055056095 229 144 101
-0.014403091 -0.0010905229 0.055056095 229 144 101
0.037171938 -0.00054321624 0.066056073 229 144 101
0.038777016 -0.00049346127 0.06705606 229 144 101
0.039616212 -0.00049346127 0.06705606 229 144 101
0.040375583 -0.00044370629 0.068056047 229 144 101
0.042050727 -0.00044370629 0.068056047 229 144 101
0.042888299 -0.00044370629 0.068056047 229 144 101
0.043725867 -0.00044370629 0.068056047 229 144 101
0.044475485 -0.00039395131 0.069056094 229 144 101
0.046147376 -0.00039394945 0.069056094 229 144 101
0.04698332 -0.00039394945 0.069056094 229 144 101
0.047819264 -0.00039394945 0.069056094 229 144 101
0.049491152 -0.00039394945 0.069056094 229 144 101
0.0503271 -0.00039394945 0.069056094 229 144 101
0.051163044 -0.00039394945 0.069056094 229 144 101
0.051998988 -0.00039394945 0.069056094 229 144 101
0.053776719 -0.00044370443 0.068056047 229 144 101
0.054614291 -0.00044370443 0.068056047 229 144 101
0.055451863 -0.00044370443 0.068056047 229 144 101
0.056289431 -0.00044370443 0.068056047 229 144 101
0.057964575 -0.00044370443 0.068056047 229 144 101
-0.038732775 -0.00042432733 0.051056087 229 144 101
-0.037797756 -0.00037619844 0.052056074 229 144 101
-0.036934163 -0.00037619844 0.052056074 229 144 101
-0.034280088 -0.00032806955 0.053056061 229 144 101
-0.033356454 -0.00027994066 0.054056048 229 144 101
-0.032496117 -0.00027994066 0.054056048 229 144 101
-0.030775439 -0.00027994066 0.054056048 229 144 101
-0.029859934 -0.00023181178 0.055056095 229 144 101
-0.029001221 -0.00023181178 0.055056095 229 144 101
-0.028142506 -0.00023181178 0.055056095 229 144 101
-0.02642508 -0.00023181178 0.055056095 229 144 101
-0.025566366 -0.00023181178 0.055056095 229 144 101
-0.024707653 -0.00023181178 0.055056095 229 144 101
-0.022990225 -0.00023181178 0.055056095 229 144 101
-0.022131512 -0.00023181178 0.055056095 229 144 101
-0.021272799 -0.00023181178 0.055056095 229 144 101
-0.020414084 -0.00023181178 0.055056095 229 144 101
-0.018696658 -0.00023181178 0.055056095 229 144 101
-0.017837944 -0.00023181178 0.055056095 229 144 101
-0.016979231 -0.00023181178 0.055056095 229 144 101
-0.015261805 -0.00023180991 0.055056095 229 144 101
-0.014428981 -0.0002799388 0.054056048 229 144 101
-0.013568642 -0.0002799388 0.054056048 229 144 101
-0.012708302 -0.0002799388 0.054056048 229 144 101
-0.011007006 -0.00032806769 0.053056061 229 144 101
-0.01014504 -0.00032806769 0.053056061 229 144 101
-0.0092992056 -0.00037619658 0.052056074 229 144 101
-0.0075720204 -0.00037619658 0.052056074 229 144 101
-0.0067196805 -0.00042432547 0.051056087 229 144 101
0.037171938 0.00029760785 0.066056073 229 144 101
0.038777016 0.00034573674 0.06705606 229 144 101
0.039616212 0.00034573674 0.06705606 229 144 101
-0.041633658 0.0002548825 0.047056079 229 144 101
-0.040537894 0.00039438903 0.05005604 229 144 101
-0.038732775 0.00044089183 0.051056087 229 144 101
-0.037797756 0.00048739463 0.052056074 229 144 101
-0.034280088 0.00053389743 0.053056061 229 144 101
-0.033356454 0.00058039837 0.054056048 229 144 101
-0.032496117 0.00058039837 0.054056048 229 144 101
-0.030775439 0.00058039837 0.054056048 229 144 101
-0.029859934 0.00062690303 0.055056095 229 144 101
-0.029001221 0.00062690303 0.055056095 229 144 101
-0.028142506 0.00062690303 0.055056095 229 144 101
-0.02642508 0.00062690303 0.055056095 229 144 101
-0.025519334 0.00067340396 0.056056082 229 144 101
-0.024662247 0.00067340396 0.056056082 229 144 101
-0.022948071 0.00067340396 0.056056082 229 144 101
-0.022090985 0.00067340396 0.056056082 229 144 101
-0.021233898 0.00067340396 0.056056082 229 144 101
-0.020376811 0.00067340396 0.056056082 229 144 101
-0.018662637 0.00067340396 0.056056082 229 144 101
-0.017837944 0.00062690303 0.055056095 229 144 101
-0.016979231 0.00062690303 0.055056095 229 144 101
-0.015261805 0.00062690489 0.055056095 229 144 101
-0.014403091 0.00062690489 0.055056095 229 144 101
-0.013568642 0.00058040023 0.054056048 229 144 101
-0.012708302 0.00058040023 0.054056048 229 144 101
-0.010987622 0.00058040023 0.054056048 229 144 101
-0.01014504 0.00053389929 0.053056061 229 144 101
-0.0092830742 0.00053389929 0.053056061 229 144 101
-0.0075720204 0.00048739649 0.052056074 229 144 101
-0.0067084273 0.00048739649 0.052056074 229 144 101
-0.0058544613 0.00044089369 0.051056087 229 144 101
0.040375583 0.0012314357 0.068056047 229 144 101
0.042050727 0.0012314357 0.068056047 229 144 101
0.042888299 0.0012314357 0.068056047 229 144 101
0.043725867 0.0012314357 0.068056047 229 144 101
0.044475485 0.0012779366 0.069056094 229 144 101
0.046147376 0.0012779385 0.069056094 229 144 101
0.04698332 0.0012779385 0.069056094 229 144 101
0.047819264 0.0012779385 0.069056094 229 144 101
0.049491152 0.0012779385 0.069056094 229 144 101
0.0503271 0.0012779385 0.069056094 229 144 101
0.051163044 0.0012779385 0.069056094 229 144 101
0.051998988 0.0012779385 0.069056094 229 144 101
0.053776719 0.0012314375 0.068056047 229 144 101
0.054614291 0.0012314375 0.068056047 229 144 101
0.055451863 0.0012314375 0.068056047 229 144 101
0.056289431 0.0012314375 0.068056047 229 144 101
0.057964575 0.0012314375 0.068056047 229 144 101
-0.040537894 0.0012612343 0.05005604 229 144 101
-0.038732775 0.001306111 0.051056087 229 144 101
-0.037797756 0.0013509877 0.052056074 229 144 101
-0.034280088 0.0013958625 0.053056061 229 144 101
-0.033356454 0.0014407393 0.054056048 229 144 101
-0.032496117 0.0014407393 0.054056048 229 144 101
-0.030775439 0.0014407393 0.054056048 229 144 101
-0.029859934 0.001485616 0.055056095 229 144 101
-0.029001221 0.001485616 0.055056095 229 144 101
-0.028142506 0.001485616 0.055056095 229 144 101
-0.026376421 0.0015304908 0.056056082 229 144 101
-0.025519334 0.0015304908 0.056056082 229 144 101
-0.024662247 0.0015304908 0.056056082 229 144 101
-0.022948071 0.0015304908 0.056056082 229 144 101
-0.022090985 0.0015304908 0.056056082 229 144 101
-0.021233898 0.0015304908 0.056056082 229 144 101
-0.020376811 0.0015304908 0.056056082 229 144 101
-0.018662637 0.0015304908 0.056056082 229 144 101
-0.017805548 0.0015304908 0.056056082 229 144 101
-0.016948462 0.0015304908 0.056056082 229 144 101
-0.015234289 0.0015304927 0.056056082 229 144 101
-0.014377201 0.0015304927 0.056056082 229 144 101
-0.013544378 0.0014856178 0.055056095 229 144 101
-0.012685664 0.0014856178 0.055056095 229 144 101
-0.010987622 0.0014407411 0.054056048 229 144 101
-0.01014504 0.0013958644 0.053056061 229 144 101
-0.0092830742 0.0013958644 0.053056061 229 144 101
-0.0075720204 0.0013509896 0.052056074 229 144 101
-0.0067084273 0.0013509896 0.052056074 229 144 101
-0.0058544613 0.0013061129 0.051056087 229 144 101
0.03709862 0.0020241309 0.06705606 229 144 101
0.038777016 0.0020241309 0.06705606 229 144 101
0.039538015 0.0020690057 0.068056047 229 144 101
0.040375583 0.0020690057 0.068056047 229 144 101
0.042050727 0.0020690057 0.068056047 229 144 101
0.042888299 0.0020690057 0.068056047 229 144 101
0.043725867 0.0020690057 0.068056047 229 144 101
0.044475485 0.0021138825 0.069056094 229 144 101
0.046147376 0.0021138843 0.069056094 229 144 101
0.04698332 0.0021138843 0.069056094 229 144 101
0.047819264 0.0021138843 0.069056094 229 144 101
0.049491152 0.0021138843 0.069056094 229 144 101
0.0503271 0.0021138843 0.069056094 229 144 101
0.051163044 0.0021138843 0.069056094 229 144 101
0.051998988 0.0021138843 0.069056094 229 144 101
0.053776719 0.0020690076 0.068056047 229 144 101
0.054614291 0.0020690076 0.068056047 229 144 101
0.055451863 0.0020690076 0.068056047 229 144 101
0.056289431 0.0020690076 0.068056047 229 144 101
0.057964575 0.0020690076 0.068056047 229 144 101
-0.040612575 0.0020848308 0.049056053 229 144 101
-0.037797756 0.0022145808 0.052056074 229 144 101
-0.036934163 0.0022145808 0.052056074 229 144 101
-0.03607057 0.0022145808 0.052056074 229 144 101
-0.0067084273 0.0022145826 0.052056074 229 144 101
-0.0058544613 0.002171332 0.051056087 229 144 101
0.036259424 0.0028633289 0.06705606 229 144 101
0.03709862 0.0028633289 0.06705606 229 144 101
0.038777016 0.0028633289 0.06705606 229 144 101
0.039538015 0.0029065777 0.068056047 229 144 101
0.040375583 0.0029065777 0.068056047 229 144 101
0.042050727 0.0029065777 0.068056047 229 144 101
0.042888299 0.0029065777 0.068056047 229 144 101
0.043639541 0.0029498264 0.069056094 229 144 101
0.044475485 0.0029498264 0.069056094 229 144 101
0.046147376 0.0029498283 0.069056094 229 144 101
0.04698332 0.0029498283 0.069056094 229 144 101
0.047819264 0.0029498283 0.069056094 229 144 101
0.049491152 0.0029498283 0.069056094 229 144 101
0.0503271 0.0029498283 0.069056094 229 144 101
0.051163044 0.0029498283 0.069056094 229 144 101
0.051998988 0.0029498283 0.069056094 229 144 101
0.053670872 0.0029498283 0.069056094 229 144 101
0.054614291 0.0029065795 0.068056047 229 144 101
0.055451863 0.0029065795 0.068056047 229 144 101
0.056289431 0.0029065795 0.068056047 229 144 101
0.057964575 0.0029065795 0.068056047 229 144 101
-0.034280088 0.0031197947 0.053056061 229 144 101
-0.033418123 0.0031197947 0.053056061 229 144 101
-0.032496117 0.0031614192 0.054056048 229 144 101
-0.030775439 0.0031614192 0.054056048 229 144 101
-0.029859934 0.0032030437 0.055056095 229 144 101
-0.029001221 0.0032030437 0.055056095 229 144 101
-0.028142506 0.0032030437 0.055056095 229 144 101
-0.026376421 0.0032446664 0.056056082 229 144 101
-0.025519334 0.0032446664 0.056056082 229 144 101
-0.024662247 0.0032446664 0.056056082 229 144 101
-0.022948071 0.0032446664 0.056056082 229 144 101
-0.022090985 0.0032446664 0.056056082 229 144 101
-0.021233898 0.0032446664 0.056056082 229 144 101
-0.020376811 0.0032446664 0.056056082 229 144 101
-0.018662637 0.0032446664 0.056056082 229 144 101
-0.017805548 0.0032446664 0.056056082 229 144 101
-0.016948462 0.0032446664 0.056056082 229 144 101
-0.015234288 0.0032446682 0.056056082 229 144 101
-0.0143772 0.0032446682 0.056056082 229 144 101
-0.013520113 0.0032446682 0.056056082 229 144 101
-0.012685663 0.0032030456 0.055056095 229 144 101
-0.010968236 0.0032030456 0.055056095 229 144 101
-0.010127282 0.003161421 0.054056048 229 144 101
-0.0092669418 0.003161421 0.054056048 229 144 101
-0.0075591411 0.0031197965 0.053056061 229 144 101
0.036259424 0.003702525 0.06705606 229 144 101
0.03709862 0.003702525 0.06705606 229 144 101
0.038777016 0.003702525 0.06705606 229 144 101
0.039538015 0.0037441477 0.068056047 229 144 101
0.040375583 0.0037441477 0.068056047 229 144 101
0.042050727 0.0037441477 0.068056047 229 144 101
0.042888299 0.0037441477 0.068056047 229 144 101
0.043639541 0.0037857704 0.069056094 229 144 101
0.044475485 0.0037857704 0.069056094 229 144 101
0.046147376 0.0037857722 0.069056094 229 144 101
0.04698332 0.0037857722 0.069056094 229 144 101
0.047819264 0.0037857722 0.069056094 229 144 101
0.049491152 0.0037857722 0.069056094 229 144 101
0.0503271 0.0037857722 0.069056094 229 144 101
0.051163044 0.0037857722 0.069056094 229 144 101
0.051998988 0.0037857722 0.069056094 229 144 101
0.053670872 0.0037857722 0.069056094 229 144 101
0.054614291 0.0037441496 0.068056047 229 144 101
0.055451863 0.0037441496 0.068056047 229 144 101
0.056289431 0.0037441496 0.068056047 229 144 101
0.057964575 0.0037441496 0.068056047 229 144 101
-0.036934163 0.0039417651 0.052056074 229 144 101
-0.03607057 0.0039417651 0.052056074 229 144 101
-0.034280088 0.0039817616 0.053056061 229 144 101
-0.033418123 0.0039817616 0.053056061 229 144 101
-0.032496117 0.0040217582 0.054056048 229 144 101
-0.030775439 0.0040217582 0.054056048 229 144 101
-0.0299151 0.0040217582 0.054056048 229 144 101
-0.029001221 0.0040617567 0.055056095 229 144 101
-0.028142506 0.0040617567 0.055056095 229 144 101
-0.026376421 0.0041017532 0.056056082 229 144 101
-0.025519334 0.0041017532 0.056056082 229 144 101
-0.024662247 0.0041017532 0.056056082 229 144 101
-0.022948071 0.0041017532 0.056056082 229 144 101
-0.022090985 0.0041017532 0.056056082 229 144 101
-0.021194996 0.0041417498 0.057056069 229 144 101
-0.020339536 0.0041417498 0.057056069 229 144 101
-0.018628614 0.0041417498 0.057056069 229 144 101
-0.017773153 0.0041417498 0.057056069 229 144 101
-0.016917692 0.0041417498 0.057056069 229 144 101
-0.015234288 0.0041017551 0.056056082 229 144 101
-0.0143772 0.0041017551 0.056056082 229 144 101
-0.013520113 0.0041017551 0.056056082 229 144 101
-0.012663026 0.0041017551 0.056056082 229 144 101
-0.010968236 0.0040617585 0.055056095 229 144 101
-0.010109522 0.0040617585 0.055056095 229 144 101
-0.0092669418 0.0040217601 0.054056048 229 144 101
-0.0075591411 0.0039817635 0.053056061 229 144 101
-0.0066971751 0.0039817635 0.053056061 229 144 101
-0.0058448352 0.0039417669 0.052056074 229 144 101
-0.0049812421 0.0039417669 0.052056074 229 144 101
-0.036934163 0.0048053581 0.052056074 229 144 101
-0.03607057 0.0048053581 0.052056074 229 144 101
-0.034280088 0.0048437286 0.053056061 229 144 101
-0.033418123 0.0048437286 0.053056061 229 144 101
-0.032556158 0.0048437286 0.053056061 229 144 101
-0.030775439 0.0048820972 0.054056048 229 144 101
-0.0299151 0.0048820972 0.054056048 229 144 101
-0.029001221 0.0049204696 0.055056095 229 144 101
-0.028142506 0.0049204696 0.055056095 229 144 101
-0.026376421 0.0049588401 0.056056082 229 144 101
-0.025519334 0.0049588401 0.056056082 229 144 101
-0.024662247 0.0049588401 0.056056082 229 144 101
-0.022948071 0.0049588401 0.056056082 229 144 101
-0.022090985 0.0049588401 0.056056082 229 144 101
-0.021194996 0.0049972106 0.057056069 229 144 101
-0.020339536 0.0049972106 0.057056069 229 144 101
-0.018628614 0.0049972106 0.057056069 229 144 101
-0.017773153 0.0049972106 0.057056069 229 144 101
-0.016917692 0.0049972106 0.057056069 229 144 101
-0.015206771 0.0049972124 0.057056069 229 144 101
-0.0143772 0.0049588419 0.056056082 229 144 101
-0.013520113 0.0049588419 0.056056082 229 144 101
-0.012663026 0.0049588419 0.056056082 229 144 101
-0.010968236 0.0049204715 0.055056095 229 144 101
-0.010109522 0.0049204715 0.055056095 229 144 101
-0.0092669418 0.0048820991 0.054056048 229 144 101
-0.0075462628 0.0048820991 0.054056048 229 144 101
-0.0066971751 0.0048437305 0.053056061 229 144 101
-0.0058352081 0.0048437305 0.053056061 229 144 101
-0.0049812421 0.00480536 0.052056074 229 144 101
-0.0032588043 0.0047669876 0.051056087 229 144 101
0.036259424 0.0053809192 0.06705606 229 144 101
0.03709862 0.0053809192 0.06705606 229 144 101
0.038777016 0.0053809192 0.06705606 229 144 101
0.039538015 0.0054192897 0.068056047 229 144 101
0.040375583 0.0054192897 0.068056047 229 144 101
0.042050727 0.0054192897 0.068056047 229 144 101
0.042803597 0.0054576602 0.069056094 229 144 101
0.043639541 0.0054576602 0.069056094 229 144 101
0.044475485 0.0054576602 0.069056094 229 144 101
0.046147376 0.005457662 0.069056094 229 144 101
0.04698332 0.005457662 0.069056094 229 144 101
0.047819264 0.005457662 0.069056094 229 144 101
0.049491152 0.005457662 0.069056094 229 144 101
0.0503271 0.005457662 0.069056094 229 144 101
0.051163044 0.005457662 0.069056094 229 144 101
0.051998988 0.005457662 0.069056094 229 144 101
0.053670872 0.005457662 0.069056094 229 144 101
0.05450682 0.005457662 0.069056094 229 144 101
0.055451863 0.0054192916 0.068056047 229 144 101
0.056289431 0.0054192916 0.068056047 229 144 101
0.057964575 0.0054192916 0.068056047 229 144 101
-0.03607057 0.0056689512 0.052056074 229 144 101
-0.034343388 0.0056689512 0.052056074 229 144 101
-0.033418123 0.0057056937 0.053056061 229 144 101
-0.032556158 0.0057056937 0.053056061 229 144 101
-0.030775439 0.0057424381 0.054056048 229 144 101
-0.0299151 0.0057424381 0.054056048 229 144 101
-0.029001221 0.0057791825 0.055056095 229 144 101
-0.0092669418 0.00574244 0.054056048 229 144 101
-0.0075462619 0.00574244 0.054056048 229 144 101
-0.0066971742 0.0057056956 0.053056061 229 144 101
-0.0058352081 0.0057056956 0.053056061 229 144 101
-0.0049812421 0.0056689531 0.052056074 229 144 101
-0.0032540571 0.0056689531 0.052056074 229 144 101
0.03709862 0.0062201172 0.06705606 229 144 101
0.038777016 0.0062201172 0.06705606 229 144 101
0.039538015 0.0062568616 0.068056047 229 144 101
0.040375583 0.0062568616 0.068056047 229 144 101
0.042050727 0.0062568616 0.068056047 229 144 101
0.042803597 0.0062936042 0.069056094 229 144 101
0.043639541 0.0062936042 0.069056094 229 144 101
0.044475485 0.0062936042 0.069056094 229 144 101
0.046147376 0.006293606 0.069056094 229 144 101
0.04698332 0.006293606 0.069056094 229 144 101
0.047819264 0.006293606 0.069056094 229 144 101
0.049491152 0.006293606 0.069056094 229 144 101
0.0503271 0.006293606 0.069056094 229 144 101
0.051163044 0.006293606 0.069056094 229 144 101
0.051998988 0.006293606 0.069056094 229 144 101
0.053670872 0.006293606 0.069056094 229 144 101
0.05450682 0.006293606 0.069056094 229 144 101
0.055451863 0.0062568635 0.068056047 229 144 101
0.056289431 0.0062568635 0.068056047 229 144 101
0.057964575 0.0062568635 0.068056047 229 144 101
-0.028090596 0.0066730138 0.056056082 229 144 101
-0.026376421 0.0066730138 0.056056082 229 144 101
-0.025519334 0.0066730138 0.056056082 229 144 101
-0.024662247 0.0066730138 0.056056082 229 144 101
-0.022948071 0.0066730138 0.056056082 229 144 101
-0.022050457 0.0067081321 0.057056069 229 144 101
-0.021194996 0.0067081321 0.057056069 229 144 101
-0.020339536 0.0067081321 0.057056069 229 144 101
-0.018628614 0.0067081321 0.057056069 229 144 101
-0.017773153 0.0067081321 0.057056069 229 144 101
-0.016917692 0.0067081321 0.057056069 229 144 101
-0.015206771 0.006708134 0.057056069 229 144 101
-0.01435131 0.006708134 0.057056069 229 144 101
-0.013520113 0.0066730157 0.056056082 229 144 101
-0.012663026 0.0066730157 0.056056082 229 144 101
-0.010948852 0.0066730157 0.056056082 229 144 101
-0.010091765 0.0066730157 0.056056082 229 144 101
0.038777016 0.0070593152 0.06705606 229 144 101
0.039538015 0.0070944317 0.068056047 229 144 101
0.040375583 0.0070944317 0.068056047 229 144 101
0.042050727 0.0070944317 0.068056047 229 144 101
0.042803597 0.00712955 0.069056094 229 144 101
0.043639541 0.00712955 0.069056094 229 144 101
0.044475485 0.00712955 0.069056094 229 144 101
0.046147376 0.0071295518 0.069056094 229 144 101
0.04698332 0.0071295518 0.069056094 229 144 101
0.047819264 0.0071295518 0.069056094 229 144 101
0.049491152 0.0071295518 0.069056094 229 144 101
0.0503271 0.0071295518 0.069056094 229 144 101
0.051163044 0.0071295518 0.069056094 229 144 101
0.051998988 0.0071295518 0.069056094 229 144 101
0.053670872 0.0071295518 0.069056094 229 144 101
0.05450682 0.0071295518 0.069056094 229 144 101
0.055342764 0.0071295518 0.069056094 229 144 101
0.056289431 0.0070944335 0.068056047 229 144 101
0.057964575 0.0070944335 0.068056047 229 144 101
-0.034343388 0.0073961355 0.052056074 229 144 101
-0.033418123 0.0074296258 0.053056061 229 144 101
-0.032556158 0.0074296258 0.053056061 229 144 101
-0.030775439 0.0074631181 0.054056048 229 144 101
-0.0299151 0.0074631181 0.054056048 229 144 101
-0.029001221 0.0074966103 0.055056095 229 144 101
-0.028142506 0.0074966103 0.055056095 229 144 101
-0.02642508 0.0074966103 0.055056095 229 144 101
-0.025519334 0.0075301006 0.056056082 229 144 101
-0.024662247 0.0075301006 0.056056082 229 144 101
-0.022948071 0.0075301006 0.056056082 229 144 101
-0.022050457 0.0075635929 0.057056069 229 144 101
-0.021194996 0.0075635929 0.057056069 229 144 101
-0.020339536 0.0075635929 0.057056069 229 144 101
-0.018628614 0.0075635929 0.057056069 229 144 101
-0.017773153 0.0075635929 0.057056069 229 144 101
-0.016917692 0.0075635929 0.057056069 229 144 101
-0.015206771 0.0075635947 0.057056069 229 144 101
-0.01435131 0.0075635947 0.057056069 229 144 101
-0.013495849 0.0075635947 0.057056069 229 144 101
-0.012663026 0.0075301025 0.056056082 229 144 101
-0.010948852 0.0075301025 0.056056082 229 144 101
-0.010109522 0.0074966121 0.055056095 229 144 101
-0.0092508094 0.0074966121 0.055056095 229 144 101
-0.0075462619 0.0074631199 0.054056048 229 144 101
-0.0066859219 0.0074631199 0.054056048 229 144 101
-0.0058352081 0.0074296277 0.053056061 229 144 101
-0.0049732421 0.0074296277 0.053056061 229 144 101
-0.0032540571 0.0073961373 0.052056074 229 144 101
-0.0023904648 0.0073961373 0.052056074 229 144 101
-0.034343388 0.0082597286 0.052056074 229 144 101
-0.033418123 0.0082915928 0.053056061 229 144 101
-0.032556158 0.0082915928 0.053056061 229 144 101
-0.030775439 0.0083234571 0.054056048 229 144 101
-0.0299151 0.0083234571 0.054056048 229 144 101
-0.029001221 0.0083553232 0.055056095 229 144 101
-0.028142506 0.0083553232 0.055056095 229 144 101
-0.02642508 0.0083553232 0.055056095 229 144 101
-0.025519334 0.0083871894 0.056056082 229 144 101
-0.024662247 0.0083871894 0.056056082 229 144 101
-0.02290592 0.0084190536 0.057056069 229 144 101
-0.022050457 0.0084190536 0.057056069 229 144 101
-0.021194996 0.0084190536 0.057056069 229 144 101
-0.020339536 0.0084190536 0.057056069 229 144 101
-0.018628614 0.0084190536 0.057056069 229 144 101
-0.017773153 0.0084190536 0.057056069 229 144 101
-0.016917692 0.0084190536 0.057056069 229 144 101
-0.015206771 0.0084190555 0.057056069 229 144 101
-0.01435131 0.0084190555 0.057056069 229 144 101
-0.013495849 0.0084190555 0.057056069 229 144 101
-0.012640389 0.0084190555 0.057056069 229 144 101
-0.010948852 0.0083871912 0.056056082 229 144 101
-0.010091765 0.0083871912 0.056056082 229 144 101
-0.0092508094 0.0083553251 0.055056095 229 144 101
-0.0075333826 0.0083553251 0.055056095 229 144 101
-0.0066859219 0.008323459 0.054056048 229 144 101
-0.0058352081 0.0082915947 0.053056061 229 144 101
-0.0049732421 0.0082915947 0.053056061 229 144 101
-0.0032540569 0.0082597304 0.052056074 229 144 101
-0.0023904648 0.0082597304 0.052056074 229 144 101
0.038700443 0.0087695736 0.068056047 229 144 101
0.039538015 0.0087695736 0.068056047 229 144 101
0.040375583 0.0087695736 0.068056047 229 144 101
0.042050727 0.0087695736 0.068056047 229 144 101
0.042803597 0.0088014379 0.069056094 229 144 101
0.043639541 0.0088014379 0.069056094 229 144 101
0.044475485 0.0088014379 0.069056094 229 144 101
0.046147376 0.0088014398 0.069056094 229 144 101
0.04698332 0.0088014398 0.069056094 229 144 101
0.047819264 0.0088014398 0.069056094 229 144 101
0.049491152 0.0088014398 0.069056094 229 144 101
0.0503271 0.0088014398 0.069056094 229 144 101
0.051163044 0.0088014398 0.069056094 229 144 101
0.051998988 0.0088014398 0.069056094 229 144 101
0.053670872 0.0088014398 0.069056094 229 144 101
0.05450682 0.0088014398 0.069056094 229 144 101
0.055342764 0.0088014398 0.069056094 229 144 101
0.056178708 0.0088014398 0.069056094 229 144 101
0.057964575 0.0087695755 0.068056047 229 144 101
-0.034343388 0.0091233216 0.052056074 229 144 101
-0.033418123 0.0091535598 0.053056061 229 144 101
-0.032556158 0.0091535598 0.053056061 229 144 101
-0.030775439 0.009183798 0.054056048 229 144 101
-0.0299151 0.009183798 0.054056048 229 144 101
-0.029001221 0.009214038 0.055056095 229 144 101
-0.028142506 0.009214038 0.055056095 229 144 101
-0.02642508 0.009214038 0.055056095 229 144 101
-0.025519334 0.0092442762 0.056056082 229 144 101
-0.024662247 0.0092442762 0.056056082 229 144 101
-0.02290592 0.0092745144 0.057056069 229 144 101
-0.022050457 0.0092745144 0.057056069 229 144 101
-0.021194996 0.0092745144 0.057056069 229 144 101
-0.010929467 0.0092745163 0.057056069 229 144 101
-0.010091765 0.0092442781 0.056056082 229 144 101
-0.0092346771 0.0092442781 0.056056082 229 144 101
-0.0075333826 0.0092140399 0.055056095 229 144 101
-0.0066746688 0.0092140399 0.055056095 229 144 101
-0.005825582 0.0091837998 0.054056048 229 144 101
-0.0049732421 0.0091535617 0.053056061 229 144 101
-0.0032493097 0.0091535617 0.053056061 229 144 101
-0.0023904645 0.0091233235 0.052056074 229 144 101
-0.0015268719 0.0091233235 0.052056074 229 144 101
0.038700443 0.0096071446 0.068056047 229 144 101
0.039538015 0.0096071446 0.068056047 229 144 101
0.040375583 0.0096071446 0.068056047 229 144 101
0.041967653 0.0096373837 0.069056094 229 144 101
0.042803597 0.0096373837 0.069056094 229 144 101
0.043639541 0.0096373837 0.069056094 229 144 101
0.044475485 0.0096373837 0.069056094 229 144 101
0.046147376 0.0096373837 0.069056094 229 144 101
0.04698332 0.0096373837 0.069056094 229 144 101
0.047819264 0.0096373837 0.069056094 229 144 101
0.049491152 0.0096373837 0.069056094 229 144 101
0.0503271 0.0096373837 0.069056094 229 144 101
0.051163044 0.0096373837 0.069056094 229 144 101
0.051998988 0.0096373837 0.069056094 229 144 101
0.053670872 0.0096373837 0.069056094 229 144 101
0.05450682 0.0096373847 0.069056094 229 144 101
0.055342764 0.0096373847 0.069056094 229 144 101
0.056178708 0.0096373847 0.069056094 229 144 101
0.057850596 0.0096373847 0.069056094 229 144 101
-0.034343388 0.0099869128 0.052056074 229 144 101
-0.033479795 0.0099869128 0.052056074 229 144 101
-0.02030226 0.010158587 0.058056056 229 144 101
-0.018594591 0.010158587 0.058056056 229 144 101
-0.017740756 0.010158587 0.058056056 229 144 101
-0.016886922 0.010158587 0.058056056 229 144 101
-0.015179255 0.010158587 0.058056056 229 144 101
-0.01432542 0.010158587 0.058056056 229 144 101
-0.013471587 0.010158587 0.058056056 229 144 101
-0.012617752 0.010158587 0.058056056 229 144 101
0.038700443 0.010444716 0.068056047 229 144 101
0.039538015 0.010444716 0.068056047 229 144 101
0.040375583 0.010444716 0.068056047 229 144 101
0.041967653 0.010473328 0.069056094 229 144 101
0.042803597 0.010473328 0.069056094 229 144 101
0.043639541 0.010473328 0.069056094 229 144 101
0.044475485 0.010473328 0.069056094 229 144 101
0.046147376 0.010473328 0.069056094 229 144 101
0.04698332 0.010473328 0.069056094 229 144 101
0.047724802 0.010501942 0.070056081 229 144 101
0.049393438 0.010501942 0.070056081 229 144 101
0.050227758 0.010501942 0.070056081 229 144 101
0.051062077 0.010501942 0.070056081 229 144 101
0.051998988 0.010473328 0.069056094 229 144 101
0.053670872 0.010473328 0.069056094 229 144 101
0.05450682 0.010473329 0.069056094 229 144 101
0.055342764 0.010473329 0.069056094 229 144 101
0.056178708 0.010473329 0.069056094 229 144 101
0.057850596 0.010473329 0.069056094 229 144 101
-0.032556158 0.010877491 0.053056061 229 144 101
-0.030775437 0.010904476 0.054056048 229 144 101
-0.029915098 0.010904476 0.054056048 229 144 101
-0.029001219 0.010931464 0.055056095 229 144 101
-0.028142504 0.010931464 0.055056095 229 144 101
-0.026425079 0.010931464 0.055056095 229 144 101
-0.025519332 0.010958449 0.056056082 229 144 101
-0.024662245 0.010958449 0.056056082 229 144 101
-0.022905918 0.010985436 0.057056069 229 144 101
-0.022050455 0.010985436 0.057056069 229 144 101
-0.021194994 0.010985436 0.057056069 229 144 101
-0.020339534 0.010985436 0.057056069 229 144 101
-0.018594591 0.011012422 0.058056056 229 144 101
-0.017740756 0.011012422 0.058056056 229 144 101
-0.016886922 0.011012422 0.058056056 229 144 101
-0.015179255 0.011012422 0.058056056 229 144 101
-0.01432542 0.011012422 0.058056056 229 144 101
-0.013471587 0.011012422 0.058056056 229 144 101
-0.012640389 0.010985436 0.057056069 229 144 101
-0.010929467 0.010985436 0.057056069 229 144 101
-0.010074006 0.010985436 0.057056069 229 144 101
-0.0092185456 0.010985436 0.057056069 229 144 101
-0.0075205034 0.010958451 0.056056082 229 144 101
-0.0066746688 0.010931466 0.055056095 229 144 101
-0.0058159558 0.010931466 0.055056095 229 144 101
-0.004965242 0.010904478 0.054056048 229 144 101
-0.0032493097 0.010877493 0.053056061 229 144 101
-0.0023873434 0.010877493 0.053056061 229 144 101
-0.0015253774 0.010877493 0.053056061 229 144 101
-0.00066354295 0.010904478 0.054056048 229 144 101
0.038700443 0.011282287 0.068056047 229 144 101
0.039538015 0.011282287 0.068056047 229 144 101
0.040375583 0.011282287 0.068056047 229 144 101
0.041967653 0.011309273 0.069056094 229 144 101
0.042803597 0.011309273 0.069056094 229 144 101
0.043639541 0.011309273 0.069056094 229 144 101
0.044475485 0.011309273 0.069056094 229 144 101
0.046147376 0.011309273 0.069056094 229 144 101
0.046890486 0.01133626 0.070056081 229 144 101
0.047724802 0.01133626 0.070056081 229 144 101
0.049393438 0.01133626 0.070056081 229 144 101
0.050227758 0.01133626 0.070056081 229 144 101
0.051062077 0.01133626 0.070056081 229 144 101
0.051896393 0.01133626 0.070056081 229 144 101
0.053670872 0.011309273 0.069056094 229 144 101
0.05450682 0.011309274 0.069056094 229 144 101
0.055342764 0.011309274 0.069056094 229 144 101
0.056178708 0.011309274 0.069056094 229 144 101
0.057850596 0.011309274 0.069056094 229 144 101
-0.034343388 0.011714098 0.052056074 229 144 101
-0.033479795 0.011714098 0.052056074 229 144 101
-0.032556158 0.011739457 0.053056061 229 144 101
-0.030775437 0.011764816 0.054056048 229 144 101
-0.029915098 0.011764816 0.054056048 229 144 101
-0.029001219 0.011790177 0.055056095 229 144 101
-0.028142504 0.011790177 0.055056095 229 144 101
-0.026376419 0.011815537 0.056056082 229 144 101
-0.025519332 0.011815537 0.056056082 229 144 101
-0.024662245 0.011815537 0.056056082 229 144 101
-0.022905918 0.011840897 0.057056069 229 144 101
-0.022050455 0.011840897 0.057056069 229 144 101
-0.021194994 0.011840897 0.057056069 229 144 101
-0.02030226 0.011866257 0.058056056 229 144 101
-0.018594591 0.011866257 0.058056056 229 144 101
-0.017740756 0.011866257 0.058056056 229 144 101
-0.016886922 0.011866257 0.058056056 229 144 101
-0.015179255 0.011866257 0.058056056 229 144 101
-0.01432542 0.011866257 0.058056056 229 144 101
-0.013471587 0.011866257 0.058056056 229 144 101
-0.012617752 0.011866257 0.058056056 229 144 101
-0.010910083 0.011866257 0.058056056 229 144 101
-0.010074006 0.011840897 0.057056069 229 144 101
-0.0092185456 0.011840897 0.057056069 229 144 101
-0.0075205034 0.011815539 0.056056082 229 144 101
-0.0066634165 0.011815539 0.056056082 229 144 101
-0.0058063297 0.011815539 0.056056082 229 144 101
-0.004965242 0.011764818 0.054056048 229 144 101
-0.0032445621 0.011764818 0.054056048 229 144 101
-0.0023873434 0.011739459 0.053056061 229 144 101
-0.0015253773 0.011739459 0.053056061 229 144 101
-0.00066341111 0.011739459 0.053056061 229 144 101
-0.034343388 0.012577689 0.052056074 229 144 101
-0.033479795 0.012577689 0.052056074 229 144 101
-0.032556158 0.012601423 0.053056061 229 144 101
-0.030832225 0.012601423 0.053056061 229 144 101
-0.029915098 0.012625156 0.054056048 229 144 101
-0.029001219 0.01264889 0.055056095 229 144 101
-0.028142504 0.01264889 0.055056095 229 144 101
-0.026376419 0.012672624 0.056056082 229 144 101
-0.025519332 0.012672624 0.056056082 229 144 101
-0.024662245 0.012672624 0.056056082 229 144 101
-0.022905918 0.012696357 0.057056069 229 144 101
-0.022050455 0.012696357 0.057056069 229 144 101
-0.021156095 0.012720091 0.058056056 229 144 101
-0.02030226 0.012720091 0.058056056 229 144 101
-0.018594591 0.012720091 0.058056056 229 144 101
-0.017740756 0.012720091 0.058056056 229 144 101
-0.016886922 0.012720091 0.058056056 229 144 101
-0.015179255 0.012720091 0.058056056 229 144 101
-0.01432542 0.012720091 0.058056056 229 144 101
-0.013471587 0.012720091 0.058056056 229 144 101
-0.012617752 0.012720091 0.058056056 229 144 101
-0.010910083 0.012720091 0.058056056 229 144 101
-0.010056249 0.012720091 0.058056056 229 144 101
-0.0092185456 0.012696357 0.057056069 229 144 101
-0.0075076241 0.012696358 0.057056069 229 144 101
-0.0066521633 0.012696358 0.057056069 229 144 101
-0.0058063297 0.012672625 0.056056082 229 144 101
-0.0049572419 0.012648892 0.055056095 229 144 101
-0.0032445621 0.012625158 0.054056048 229 144 101
-0.0023842226 0.012625158 0.054056048 229 144 101
-0.0015238826 0.012625158 0.054056048 229 144 101
-0.00066341105 0.012601425 0.053056061 229 144 101
0.0010605213 0.012601425 0.053056061 229 144 101
0.038700443 0.012957429 0.068056047 229 144 101
0.039538015 0.012957429 0.068056047 229 144 101
0.040375583 0.012957429 0.068056047 229 144 101
0.041967653 0.012981162 0.069056094 229 144 101
0.042803597 0.012981162 0.069056094 229 144 101
0.043639541 0.012981162 0.069056094 229 144 101
0.044475485 0.012981162 0.069056094 229 144 101
0.046056166 0.013004895 0.070056081 229 144 101
0.046890486 0.013004895 0.070056081 229 144 101
0.047724802 0.013004895 0.070056081 229 144 101
0.049393438 0.013004895 0.070056081 229 144 101
0.050227758 0.013004895 0.070056081 229 144 101
0.051062077 0.013004895 0.070056081 229 144 101
0.051896393 0.013004895 0.070056081 229 144 101
0.053565033 0.013004895 0.070056081 229 144 101
0.054399353 0.013004896 0.070056081 229 144 101
0.055233669 0.013004896 0.070056081 229 144 101
0.056178708 0.012981163 0.069056094 229 144 101
0.057850596 0.012981163 0.069056094 229 144 101
-0.034406681 0.013419176 0.051056087 229 144 101
-0.033479795 0.013441282 0.052056074 229 144 101
-0.032616202 0.013441282 0.052056074 229 144 101
-0.030832225 0.013463389 0.053056061 229 144 101
-0.029915098 0.013485496 0.054056048 229 144 101
-0.029001219 0.013507604 0.055056095 229 144 101
-0.028142504 0.013507604 0.055056095 229 144 101
-0.00066354283 0.013485498 0.054056048 229 144 101
0.0010571368 0.013485498 0.054056048 229 144 101
0.038700443 0.013795 0.068056047 229 144 101
0.039538015 0.013795 0.068056047 229 144 101
0.040375583 0.013795 0.068056047 229 144 101
0.041967653 0.013817107 0.069056094 229 144 101
0.042803597 0.013817107 0.069056094 229 144 101
0.043639541 0.013817107 0.069056094 229 144 101
0.044475485 0.013817107 0.069056094 229 144 101
0.046056166 0.013839214 0.070056081 229 144 101
0.046890486 0.013839214 0.070056081 229 144 101
0.047724802 0.013839214 0.070056081 229 144 101
0.049393438 0.013839214 0.070056081 229 144 101
0.050227758 0.013839214 0.070056081 229 144 101
0.051062077 0.013839214 0.070056081 229 144 101
0.051896393 0.013839214 0.070056081 229 144 101
0.053565033 0.013839214 0.070056081 229 144 101
0.054399353 0.013839215 0.070056081 229 144 101
0.055233669 0.013839215 0.070056081 229 144 101
0.056067988 0.013839215 0.070056081 229 144 101
0.057850596 0.013817108 0.069056094 229 144 101
-0.026376419 0.014386798 0.056056082 229 144 101
-0.025519332 0.014386798 0.056056082 229 144 101
-0.024662245 0.014386798 0.056056082 229 144 101
-0.022905918 0.014407279 0.057056069 229 144 101
-0.022050455 0.014407279 0.057056069 229 144 101
-0.021156095 0.014427761 0.058056056 229 144 101
-0.02030226 0.014427761 0.058056056 229 144 101
-0.018594591 0.014427761 0.058056056 229 144 101
-0.017740756 0.014427761 0.058056056 229 144 101
-0.016886922 0.014427761 0.058056056 229 144 101
-0.015179255 0.014427761 0.058056056 229 144 101
-0.01432542 0.014427761 0.058056056 229 144 101
-0.013471587 0.014427761 0.058056056 229 144 101
-0.012617752 0.014427761 0.058056056 229 144 101
-0.010910083 0.014427761 0.058056056 229 144 101
-0.010056249 0.014427761 0.058056056 229 144 101
-0.0092024142 0.014427761 0.058056056 229 144 101
-0.0074947448 0.014427762 0.058056056 229 144 101
-0.0066521633 0.01440728 0.057056069 229 144 101
-0.0058063287 0.0143868 0.056056082 229 144 101
-0.0049412418 0.01440728 0.057056069 229 144 101
-0.0032303205 0.01440728 0.057056069 229 144 101
-0.0023779806 0.0143868 0.056056082 229 144 101
-0.0015208935 0.0143868 0.056056082 229 144 101
0.038700443 0.014632571 0.068056047 229 144 101
0.039538015 0.014632571 0.068056047 229 144 101
0.040375583 0.014632571 0.068056047 229 144 101
0.041967653 0.014653052 0.069056094 229 144 101
0.042803597 0.014653052 0.069056094 229 144 101
0.043639541 0.014653052 0.069056094 229 144 101
0.044387531 0.014673532 0.070056081 229 144 101
0.046056166 0.014673532 0.070056081 229 144 101
0.046890486 0.014673532 0.070056081 229 144 101
0.047724802 0.014673532 0.070056081 229 144 101
0.049393438 0.014673532 0.070056081 229 144 101
0.050227758 0.014673532 0.070056081 229 144 101
0.051062077 0.014673532 0.070056081 229 144 101
0.051896393 0.014673532 0.070056081 229 144 101
0.053565033 0.014673532 0.070056081 229 144 101
0.054399353 0.014673533 0.070056081 229 144 101
0.055233669 0.014673533 0.070056081 229 144 101
0.056067988 0.014673533 0.070056081 229 144 101
0.057736624 0.014673533 0.070056081 229 144 101
-0.033541463 0.015149613 0.051056087 229 144 101
-0.032616202 0.015168468 0.052056074 229 144 101
-0.030832225 0.015187322 0.053056061 229 144 101
-0.029915098 0.015206176 0.054056048 229 144 101
-0.029054757 0.015206176 0.054056048 229 144 101
-0.028142504 0.01522503 0.055056095 229 144 101
-0.026425079 0.01522503 0.055056095 229 144 101
-0.025519332 0.015243885 0.056056082 229 144 101
-0.024616839 0.015262739 0.057056069 229 144 101
-0.022905918 0.01526274 0.057056069 229 144 101
-0.022050455 0.01526274 0.057056069 229 144 101
-0.021156095 0.015281594 0.058056056 229 144 101
-0.02030226 0.015281594 0.058056056 229 144 101
-0.018594591 0.015281594 0.058056056 229 144 101
-0.017740756 0.015281594 0.058056056 229 144 101
-0.016886922 0.015281594 0.058056056 229 144 101
-0.015151739 0.015300449 0.059056044 229 144 101
-0.014299531 0.015300449 0.059056044 229 144 101
-0.013447323 0.015300449 0.059056044 229 144 101
-0.012595114 0.015300449 0.059056044 229 144 101
-0.010890698 0.015300449 0.059056044 229 144 101
-0.010056249 0.015281594 0.058056056 229 144 101
-0.0092024142 0.015281594 0.058056056 229 144 101
-0.0083340742 0.01530045 0.059056044 229 144 101
-0.0066409111 0.015281595 0.058056056 229 144 101
-0.0057967026 0.015262741 0.057056069 229 144 101
-0.0049492419 0.015243887 0.056056082 229 144 101
-0.0032398149 0.015225032 0.055056095 229 144 101
-0.0023811013 0.015225032 0.055056095 229 144 101
-0.001522388 0.015225032 0.055056095 229 144 101
-0.00066354271 0.015206178 0.054056048 229 144 101
0.0010571369 0.015206178 0.054056048 229 144 101
0.0019174765 0.015206178 0.054056048 229 144 101
-0.033541463 0.016014833 0.051056087 229 144 101
-0.032616202 0.016032059 0.052056074 229 144 101
-0.030832225 0.016049288 0.053056061 229 144 101
-0.029915098 0.016066516 0.054056048 229 144 101
-0.029054757 0.016066516 0.054056048 229 144 101
-0.028142504 0.016083743 0.055056095 229 144 101
-0.026425079 0.016083743 0.055056095 229 144 101
-0.025519332 0.016100973 0.056056082 229 144 101
-0.024616839 0.016118199 0.057056069 229 144 101
-0.022905918 0.0161182 0.057056069 229 144 101
-0.022050455 0.0161182 0.057056069 229 144 101
-0.021156095 0.016135428 0.058056056 229 144 101
-0.02030226 0.016135428 0.058056056 229 144 101
-0.018594591 0.016135428 0.058056056 229 144 101
-0.017740756 0.016135428 0.058056056 229 144 101
-0.016856153 0.016152658 0.059056044 229 144 101
-0.015151739 0.016152658 0.059056044 229 144 101
-0.014299531 0.016152658 0.059056044 229 144 101
-0.013447323 0.016152658 0.059056044 229 144 101
-0.012595114 0.016152658 0.059056044 229 144 101
-0.010890698 0.016152658 0.059056044 229 144 101
-0.01003849 0.016152658 0.059056044 229 144 101
-0.0091862818 0.016152658 0.059056044 229 144 101
-0.0083340742 0.016152658 0.059056044 229 144 101
-0.0066409111 0.01613543 0.058056056 229 144 101
-0.0057870764 0.01613543 0.058056056 229 144 101
-0.0049412418 0.016118202 0.057056069 229 144 101
-0.0032350675 0.016100973 0.056056082 229 144 101
-0.0023779804 0.016100973 0.056056082 229 144 101
-0.0015223878 0.016083747 0.055056095 229 144 101
-0.00066367444 0.016083747 0.055056095 229 144 101
0.0010537525 0.016083747 0.055056095 229 144 101
0.001912466 0.016083747 0.055056095 229 144 101
0.038700443 0.016307712 0.068056047 229 144 101
0.039538015 0.016307712 0.068056047 229 144 101
0.040295761 0.016324941 0.069056094 229 144 101
0.041967653 0.016324941 0.069056094 229 144 101
0.042803597 0.016324941 0.069056094 229 144 101
0.043639541 0.016324941 0.069056094 229 144 101
0.044387531 0.016342169 0.070056081 229 144 101
0.046056166 0.016342169 0.070056081 229 144 101
0.046890486 0.016342169 0.070056081 229 144 101
0.047724802 0.016342169 0.070056081 229 144 101
0.049393438 0.016342169 0.070056081 229 144 101
0.050128419 0.016359396 0.071056068 229 144 101
0.050961111 0.016359396 0.071056068 229 144 101
0.051793803 0.016359396 0.071056068 229 144 101
0.053565033 0.016342169 0.070056081 229 144 101
0.054399353 0.016342171 0.070056081 229 144 101
0.055233669 0.016342171 0.070056081 229 144 101
0.056067988 0.016342171 0.070056081 229 144 101
0.057736624 0.016342171 0.070056081 229 144 101
-0.033603132 0.016864449 0.05005604 229 144 101
-0.032676242 0.01688005 0.051056087 229 144 101
-0.030889018 0.016895652 0.052056074 229 144 101
-0.02997026 0.016911253 0.053056061 229 144 101
-0.029054757 0.016926855 0.054056048 229 144 101
-0.028142504 0.016942456 0.055056095 229 144 101
-0.026425079 0.016942456 0.055056095 229 144 101
-0.025519332 0.01695806 0.056056082 229 144 101
-0.024616839 0.016973659 0.057056069 229 144 101
-0.022905918 0.016973661 0.057056069 229 144 101
-0.02200993 0.016989265 0.058056056 229 144 101
-0.021156095 0.016989265 0.058056056 229 144 101
-0.0049332418 0.016989265 0.058056056 229 144 101
-0.0032303203 0.016973663 0.057056069 229 144 101
-0.0023748595 0.016973663 0.057056069 229 144 101
