ply
format ascii 1.0
comment PCL generated
element vertex 1025
property float x
property float y
property float z
property uchar red
property uchar green
property uchar blue
element camera 0
property float view_px
property float view_py
property float view_pz
property float x_axisx
property float x_axisy
property float x_axisz
property float y_axisx
property float y_axisy
property float y_axisz
property float z_axisx
property float z_axisy
property float z_axisz
property float focal
property float scalex
property float scaley
property float centerx
property float centery
property int viewportx
property int viewporty
property float k1
property float k2
end_header
-0.0097477091 0.03958685 0.51700002 210 70 13
-0.0097477091 0.040427674 0.51700002 210 70 13
-0.0097477091 0.041268498 0.51700002 210 70 13
-0.0097288545 0.042867072 0.51600003 210 70 13
-0.0097288545 0.043706268 0.51600003 210 70 13
-0.0097288545 0.044545464 0.51600003 210 70 13
-0.0097288545 0.045384664 0.51600003 210 70 13
-0.0097288545 0.047063056 0.51600003 210 70 13
-0.0097288545 0.054615833 0.51600003 210 70 13
-0.0097288545 0.055455029 0.51600003 210 70 13
-0.0097288545 0.056294229 0.51600003 210 70 13
-0.0097288545 0.057133425 0.51600003 210 70 13
-0.0097288545 0.058811821 0.51600003 210 70 13
-0.0097288545 0.059651017 0.51600003 210 70 13
-0.010407612 0.084460877 0.55200005 210 70 13
-0.010351049 0.085787579 0.54900002 210 70 13
-0.01031334 0.086364672 0.54700005 210 70 13
-0.01031334 0.087254286 0.54700005 210 70 13
-0.01031334 0.0881439 0.54700005 210 70 13
-0.010294486 0.089758731 0.546 210 70 13
-0.010294486 0.090646721 0.546 210 70 13
-0.010275632 0.091367066 0.54500002 210 70 13
-0.010275632 0.09313979 0.54500002 210 70 13
-0.010275632 0.094026148 0.54500002 210 70 13
-0.010256778 0.094738357 0.54400003 210 70 13
-0.010256778 0.095623098 0.54400003 210 70 13
-0.010256778 0.097392567 0.54400003 210 70 13
-0.010256778 0.098277301 0.54400003 210 70 13
-0.010256778 0.099162035 0.54400003 210 70 13
-0.010275632 0.10111704 0.54500002 210 70 13
-0.010275632 0.1020034 0.54500002 210 70 13
-0.010275632 0.10288977 0.54500002 210 70 13
-0.010294486 0.10396654 0.546 210 70 13
-0.010294486 0.10574251 0.546 210 70 13
-0.01031334 0.1068258 0.54700005 210 70 13
-0.01031334 0.10771541 0.54700005 210 70 13
-0.010332194 0.10969481 0.54800004 210 70 13
-0.010369903 0.11188415 0.55000001 210 70 13
-0.0091997618 -0.03293154 0.53400004 210 70 13
-0.0091997618 -0.032063071 0.53400004 210 70 13
-0.0091825342 -0.030269338 0.53300005 210 70 13
-0.0091825342 -0.029402493 0.53300005 210 70 13
-0.0091653056 -0.028482107 0.53200001 210 70 13
-0.009148078 -0.027564978 0.53100002 210 70 13
-0.009148078 -0.025837792 0.53100002 210 70 13
-0.0091308495 -0.024927167 0.53000003 210 70 13
-0.0091136219 -0.024019795 0.52900004 210 70 13
-0.0091136219 -0.022299115 0.52900004 210 70 13
-0.0090963934 -0.021398248 0.528 210 70 13
-0.0090963934 -0.020539535 0.528 210 70 13
-0.0090963934 -0.01968082 0.528 210 70 13
-0.0090791658 -0.017929373 0.52700001 210 70 13
-0.0090791658 -0.017072285 0.52700001 210 70 13
-0.0090791658 -0.016215198 0.52700001 210 70 13
-0.0090791658 -0.014501024 0.52700001 210 70 13
-0.0090791658 -0.013643936 0.52700001 210 70 13
-0.0090791658 -0.012786849 0.52700001 210 70 13
-0.0090791658 -0.011929763 0.52700001 210 70 13
-0.0090791658 -0.010215588 0.52700001 210 70 13
-0.0090791658 -0.0093585011 0.52700001 210 70 13
-0.0090791658 -0.0085014133 0.52700001 210 70 13
-0.0090791658 -0.0067872391 0.52700001 210 70 13
-0.0090791658 -0.0059301523 0.52700001 210 70 13
-0.0090963934 -0.0050826916 0.528 210 70 13
-0.0090963934 -0.0042239781 0.528 210 70 13
-0.0091136219 -0.0025112981 0.52900004 210 70 13
-0.0091136219 -0.0016509583 0.52900004 210 70 13
-0.0091308495 -0.00079211296 0.53000003 210 70 13
-0.0091308495 6.9853253e-05 0.53000003 210 70 13
-0.009148078 0.0017971703 0.53100002 210 70 13
-0.009148078 0.0026607628 0.53100002 210 70 13
-0.0088724298 0.047809418 0.51500005 210 70 13
-0.0088724298 0.04864699 0.51500005 210 70 13
-0.0088724298 0.050322134 0.51500005 210 70 13
-0.0088724298 0.051159702 0.51500005 210 70 13
-0.0088724298 0.051997274 0.51500005 210 70 13
-0.0088724298 0.052834846 0.51500005 210 70 13
-0.0094926385 0.084307864 0.551 210 70 13
-0.0094409538 0.085631318 0.54800004 210 70 13
-0.0094237262 0.086364672 0.54700005 210 70 13
-0.0094064977 0.087094769 0.546 210 70 13
-0.0094064977 0.087982759 0.546 210 70 13
-0.0094064977 0.089758731 0.546 210 70 13
-0.0093892701 0.090480708 0.54500002 210 70 13
-0.0093892701 0.091367066 0.54500002 210 70 13
-0.0093892701 0.09313979 0.54500002 210 70 13
-0.0093720416 0.093853623 0.54400003 210 70 13
-0.0093720416 0.094738357 0.54400003 210 70 13
-0.0093720416 0.095623098 0.54400003 210 70 13
-0.0093720416 0.097392567 0.54400003 210 70 13
-0.0093720416 0.098277301 0.54400003 210 70 13
-0.0093720416 0.099162035 0.54400003 210 70 13
-0.0093720416 0.1009315 0.54400003 210 70 13
-0.0093892701 0.1020034 0.54500002 210 70 13
-0.0093892701 0.10288977 0.54500002 210 70 13
-0.0094064977 0.10396654 0.546 210 70 13
-0.0094064977 0.10574251 0.546 210 70 13
-0.0094237262 0.1068258 0.54700005 210 70 13
-0.0094237262 0.10771541 0.54700005 210 70 13
-0.0094926385 0.11208758 0.551 210 70 13
-0.008346892 -0.032993212 0.53500003 210 70 13
-0.0083312895 -0.032063071 0.53400004 210 70 13
-0.0083312895 -0.030326126 0.53400004 210 70 13
-0.0083156889 -0.029402493 0.53300005 210 70 13
-0.0083000865 -0.028482107 0.53200001 210 70 13
-0.008284485 -0.027564978 0.53100002 210 70 13
-0.008284485 -0.025837792 0.53100002 210 70 13
-0.0082688835 -0.024927167 0.53000003 210 70 13
-0.0082532819 -0.024019795 0.52900004 210 70 13
-0.0082532819 -0.022299115 0.52900004 210 70 13
-0.0082376804 -0.021398248 0.528 210 70 13
-0.0082376804 -0.020539535 0.528 210 70 13
-0.008222078 -0.019643547 0.52700001 210 70 13
-0.008222078 -0.017929373 0.52700001 210 70 13
-0.008222078 -0.017072285 0.52700001 210 70 13
-0.008222078 -0.016215198 0.52700001 210 70 13
-0.008222078 -0.014501024 0.52700001 210 70 13
-0.0082064774 -0.013618046 0.52600002 210 70 13
-0.0082064774 -0.012762586 0.52600002 210 70 13
-0.0082064774 -0.011907125 0.52600002 210 70 13
-0.0082064774 -0.010196203 0.52600002 210 70 13
-0.0082064774 -0.0093407426 0.52600002 210 70 13
-0.008222078 -0.0085014133 0.52700001 210 70 13
-0.008222078 -0.0067872391 0.52700001 210 70 13
-0.008222078 -0.0059301523 0.52700001 210 70 13
-0.008222078 -0.0050730654 0.52700001 210 70 13
-0.0082376804 -0.0042239781 0.528 210 70 13
-0.0082376804 -0.0025065509 0.528 210 70 13
-0.0082532819 -0.0016509583 0.52900004 210 70 13
-0.0082532819 -0.00079061842 0.52900004 210 70 13
-0.0082688835 6.9853253e-05 0.53000003 210 70 13
-0.0082688835 0.0017937857 0.53000003 210 70 13
-0.0082688835 0.002655752 0.53000003 210 70 13
-0.008284485 0.0035243554 0.53100002 210 70 13
-0.0080660619 0.037905205 0.51700002 210 70 13
-0.0080660619 0.03958685 0.51700002 210 70 13
-0.0080660619 0.040427674 0.51700002 210 70 13
-0.0080504604 0.041188676 0.51600003 210 70 13
-0.0080504604 0.042867072 0.51600003 210 70 13
-0.0080504604 0.043706268 0.51600003 210 70 13
-0.0080504604 0.044545464 0.51600003 210 70 13
-0.0080504604 0.045384664 0.51600003 210 70 13
-0.0080348589 0.04697185 0.51500005 210 70 13
-0.0080348589 0.047809418 0.51500005 210 70 13
-0.0080348589 0.04864699 0.51500005 210 70 13
-0.0080348589 0.050322134 0.51500005 210 70 13
-0.0080348589 0.051159702 0.51500005 210 70 13
-0.0080348589 0.051997274 0.51500005 210 70 13
-0.0080348589 0.052834846 0.51500005 210 70 13
-0.0080348589 0.054509986 0.51500005 210 70 13
-0.0080348589 0.055347558 0.51500005 210 70 13
-0.0080504604 0.056294229 0.51600003 210 70 13
-0.0080504604 0.057133425 0.51600003 210 70 13
-0.0080504604 0.058811821 0.51600003 210 70 13
-0.0080504604 0.059651017 0.51600003 210 70 13
-0.0085809166 0.084154852 0.55000001 210 70 13
-0.0085809166 0.11098965 0.55000001 210 70 13
-0.008627722 0.11249442 0.55300003 210 70 13
-0.0074628182 -0.030326126 0.53400004 210 70 13
-0.0074488432 -0.029402493 0.53300005 210 70 13
-0.0074348678 -0.028482107 0.53200001 210 70 13
-0.0074348678 -0.027616888 0.53200001 210 70 13
-0.0074208928 -0.025837792 0.53100002 210 70 13
-0.0072252383 0.03958685 0.51700002 210 70 13
-0.0072252383 0.040427674 0.51700002 210 70 13
-0.0072112628 0.041188676 0.51600003 210 70 13
-0.0072112628 0.042867072 0.51600003 210 70 13
-0.0072112628 0.043706268 0.51600003 210 70 13
-0.0072112628 0.044545464 0.51600003 210 70 13
-0.0071972879 0.045296706 0.51500005 210 70 13
-0.0071972879 0.04697185 0.51500005 210 70 13
-0.0071972879 0.047809418 0.51500005 210 70 13
-0.0071972879 0.04864699 0.51500005 210 70 13
-0.0071972879 0.050322134 0.51500005 210 70 13
-0.0071972879 0.051159702 0.51500005 210 70 13
-0.0071972879 0.051997274 0.51500005 210 70 13
-0.0071972879 0.052834846 0.51500005 210 70 13
-0.0071972879 0.054509986 0.51500005 210 70 13
-0.0071972879 0.055347558 0.51500005 210 70 13
-0.0071972879 0.05618513 0.51500005 210 70 13
-0.0072112628 0.057133425 0.51600003 210 70 13
-0.0072112628 0.058811821 0.51600003 210 70 13
-0.0072112628 0.059651017 0.51600003 210 70 13
-0.0076444978 0.085475057 0.54700005 210 70 13
-0.0076305224 0.086206779 0.546 210 70 13
-0.0076305224 0.087094769 0.546 210 70 13
-0.0076305224 0.087982759 0.546 210 70 13
-0.0076165474 0.089594342 0.54500002 210 70 13
-0.0076165474 0.090480708 0.54500002 210 70 13
-0.0076025715 0.09119942 0.54400003 210 70 13
-0.0076025715 0.092968889 0.54400003 210 70 13
-0.0076025715 0.093853623 0.54400003 210 70 13
-0.0076025715 0.094738357 0.54400003 210 70 13
-0.0076025715 0.095623098 0.54400003 210 70 13
-0.0075885961 0.097213537 0.54300004 210 70 13
-0.0076025715 0.098277301 0.54400003 210 70 13
-0.0076025715 0.099162035 0.54400003 210 70 13
-0.0076025715 0.1009315 0.54400003 210 70 13
-0.0076025715 0.10181624 0.54400003 210 70 13
-0.0076165474 0.10288977 0.54500002 210 70 13
-0.0076165474 0.10377613 0.54500002 210 70 13
-0.0076305224 0.10574251 0.546 210 70 13
-0.0076444978 0.1068258 0.54700005 210 70 13
-0.0076444978 0.10771541 0.54700005 210 70 13
-0.0077562998 0.11290128 0.55500001 210 70 13
-0.0065449509 -0.024927167 0.53000003 210 70 13
-0.006532602 -0.024019795 0.52900004 210 70 13
-0.006532602 -0.022299115 0.52900004 210 70 13
-0.0065202531 -0.021398248 0.528 210 70 13
-0.0065202531 -0.020539535 0.528 210 70 13
-0.0065079043 -0.019643547 0.52700001 210 70 13
-0.0065079043 -0.017929373 0.52700001 210 70 13
-0.0065079043 -0.017072285 0.52700001 210 70 13
-0.0065079043 -0.016215198 0.52700001 210 70 13
-0.0064955554 -0.014473507 0.52600002 210 70 13
-0.0064955554 -0.013618046 0.52600002 210 70 13
-0.0064955554 -0.012762586 0.52600002 210 70 13
-0.0064955554 -0.011907125 0.52600002 210 70 13
-0.0064955554 -0.010196203 0.52600002 210 70 13
-0.0064955554 -0.0093407426 0.52600002 210 70 13
-0.0064955554 -0.0084852818 0.52600002 210 70 13
-0.0064955554 -0.0067743603 0.52600002 210 70 13
-0.0065079043 -0.0059301523 0.52700001 210 70 13
-0.0065079043 -0.0050730654 0.52700001 210 70 13
-0.0065079043 -0.0042159781 0.52700001 210 70 13
-0.0065202531 -0.0025065509 0.528 210 70 13
-0.0065202531 -0.0016478373 0.528 210 70 13
-0.0065202531 -0.00078912388 0.528 210 70 13
-0.006532602 6.9721449e-05 0.52900004 210 70 13
-0.006532602 0.0017904012 0.52900004 210 70 13
-0.0065449509 0.002655752 0.53000003 210 70 13
-0.0065449509 0.0035177183 0.53000003 210 70 13
-0.0063720653 0.04034948 0.51600003 210 70 13
-0.0063720653 0.041188676 0.51600003 210 70 13
-0.0063720653 0.042867072 0.51600003 210 70 13
-0.0063720653 0.043706268 0.51600003 210 70 13
-0.0063720653 0.044545464 0.51600003 210 70 13
-0.0063597164 0.045296706 0.51500005 210 70 13
-0.0063597164 0.04697185 0.51500005 210 70 13
-0.0063597164 0.047809418 0.51500005 210 70 13
-0.0063597164 0.04864699 0.51500005 210 70 13
-0.0063597164 0.050322134 0.51500005 210 70 13
-0.0063597164 0.051159702 0.51500005 210 70 13
-0.0063597164 0.051997274 0.51500005 210 70 13
-0.0063597164 0.052834846 0.51500005 210 70 13
-0.0063597164 0.054509986 0.51500005 210 70 13
-0.0063597164 0.055347558 0.51500005 210 70 13
-0.0063597164 0.05618513 0.51500005 210 70 13
-0.0063597164 0.057022698 0.51500005 210 70 13
-0.0063720653 0.058811821 0.51600003 210 70 13
-0.0063720653 0.059651017 0.51600003 210 70 13
-0.0067795813 0.084001847 0.54900002 210 70 13
-0.0067548836 0.085475057 0.54700005 210 70 13
-0.0067425342 0.086206779 0.546 210 70 13
-0.0067301858 0.086935259 0.54500002 210 70 13
-0.0067301858 0.087821618 0.54500002 210 70 13
-0.0067301858 0.089594342 0.54500002 210 70 13
-0.0067178365 0.090314686 0.54400003 210 70 13
-0.0067178365 0.09119942 0.54400003 210 70 13
-0.0067178365 0.092968889 0.54400003 210 70 13
-0.0067178365 0.093853623 0.54400003 210 70 13
-0.0067054871 0.094564207 0.54300004 210 70 13
-0.0067054871 0.095447317 0.54300004 210 70 13
-0.0067054871 0.097213537 0.54300004 210 70 13
-0.0067054871 0.098096639 0.54300004 210 70 13
-0.0067054871 0.098979749 0.54300004 210 70 13
-0.0067178365 0.1009315 0.54400003 210 70 13
-0.0067178365 0.10181624 0.54400003 210 70 13
-0.0067301858 0.10288977 0.54500002 210 70 13
-0.0067301858 0.10377613 0.54500002 210 70 13
-0.0067425342 0.10574251 0.546 210 70 13
-0.0067425342 0.10663051 0.546 210 70 13
-0.0067548836 0.10771541 0.54700005 210 70 13
-0.0067919302 0.11098965 0.55000001 210 70 13
-0.0057151527 -0.029402493 0.53300005 210 70 13
-0.0057044299 -0.028482107 0.53200001 210 70 13
-0.0057044299 -0.027616888 0.53200001 210 70 13
-0.0056937071 -0.025837792 0.53100002 210 70 13
-0.0056829848 -0.024927167 0.53000003 210 70 13
-0.0056722621 -0.024019795 0.52900004 210 70 13
-0.0056722621 -0.022299115 0.52900004 210 70 13
-0.0056615397 -0.021398248 0.528 210 70 13
-0.0056615397 -0.020539535 0.528 210 70 13
-0.005650817 -0.019643547 0.52700001 210 70 13
-0.005650817 -0.017929373 0.52700001 210 70 13
-0.005650817 -0.017072285 0.52700001 210 70 13
-0.0056400946 -0.016184429 0.52600002 210 70 13
-0.0056400946 -0.014473507 0.52600002 210 70 13
-0.0056400946 -0.013618046 0.52600002 210 70 13
-0.0056400946 -0.012762586 0.52600002 210 70 13
-0.0056400946 -0.011907125 0.52600002 210 70 13
-0.0056400946 -0.010196203 0.52600002 210 70 13
-0.0056400946 -0.0093407426 0.52600002 210 70 13
-0.0056400946 -0.0084852818 0.52600002 210 70 13
-0.0056400946 -0.0067743603 0.52600002 210 70 13
-0.0056400946 -0.0059188996 0.52600002 210 70 13
-0.0056400946 -0.0050634388 0.52600002 210 70 13
-0.005650817 -0.0042159781 0.52700001 210 70 13
-0.005650817 -0.0025018037 0.52700001 210 70 13
-0.005650817 -0.0016447165 0.52700001 210 70 13
-0.0056615397 -0.00078912388 0.528 210 70 13
-0.0056615397 6.9589652e-05 0.528 210 70 13
-0.0056722621 0.0017904012 0.52900004 210 70 13
-0.0056722621 0.002650741 0.52900004 210 70 13
-0.0056722621 0.003511081 0.52900004 210 70 13
-0.0056829848 0.0052416506 0.53000003 210 70 13
-0.0059081595 0.083411746 0.551 210 70 13
-0.0058759917 0.083848841 0.54800004 210 70 13
-0.0058545466 0.085318796 0.546 210 70 13
-0.0058545466 0.086206779 0.546 210 70 13
-0.0058438238 0.086935259 0.54500002 210 70 13
-0.0058438238 0.087821618 0.54500002 210 70 13
-0.0058331015 0.089429952 0.54400003 210 70 13
-0.0058331015 0.090314686 0.54400003 210 70 13
-0.0058331015 0.09119942 0.54400003 210 70 13
-0.0058223787 0.092797987 0.54300004 210 70 13
-0.0058223787 0.093681097 0.54300004 210 70 13
-0.0058223787 0.094564207 0.54300004 210 70 13
-0.0058223787 0.095447317 0.54300004 210 70 13
-0.0058223787 0.097213537 0.54300004 210 70 13
-0.0058223787 0.098096639 0.54300004 210 70 13
-0.0058223787 0.098979749 0.54300004 210 70 13
-0.0058223787 0.10074597 0.54300004 210 70 13
-0.0058331015 0.10181624 0.54400003 210 70 13
-0.0058331015 0.10270098 0.54400003 210 70 13
-0.0058438238 0.10377613 0.54500002 210 70 13
-0.0058438238 0.10554885 0.54500002 210 70 13
-0.0058545466 0.10663051 0.546 210 70 13
-0.0058652689 0.10771541 0.54700005 210 70 13
-0.0058759917 0.10969481 0.54800004 210 70 13
-0.0059081595 0.11119146 0.551 210 70 13
-0.0048483075 -0.028535647 0.53300005 210 70 13
-0.0048392108 -0.027616888 0.53200001 210 70 13
-0.0048301145 -0.025837792 0.53100002 210 70 13
-0.0048210183 -0.024927167 0.53000003 210 70 13
-0.0048119221 -0.024019795 0.52900004 210 70 13
-0.0048119221 -0.022299115 0.52900004 210 70 13
-0.0048028259 -0.021398248 0.528 210 70 13
-0.0048028259 -0.020539535 0.528 210 70 13
-0.0047937296 -0.019643547 0.52700001 210 70 13
-0.0047937296 -0.017929373 0.52700001 210 70 13
-0.0047937296 -0.017072285 0.52700001 210 70 13
-0.0047846334 -0.016184429 0.52600002 210 70 13
-0.0047846334 -0.014473507 0.52600002 210 70 13
-0.0047846334 -0.013618046 0.52600002 210 70 13
-0.0047846334 -0.012762586 0.52600002 210 70 13
-0.0047846334 -0.011907125 0.52600002 210 70 13
-0.0047846334 -0.010196203 0.52600002 210 70 13
-0.0047846334 -0.0093407426 0.52600002 210 70 13
-0.0047846334 -0.0084852818 0.52600002 210 70 13
-0.0047846334 -0.0067743603 0.52600002 210 70 13
-0.0047846334 -0.0059188996 0.52600002 210 70 13
-0.0047846334 -0.0050634388 0.52600002 210 70 13
-0.0047846334 -0.004207978 0.52600002 210 70 13
-0.0047937296 -0.0025018037 0.52700001 210 70 13
-0.0047937296 -0.0016447165 0.52700001 210 70 13
-0.0047937296 -0.00078762934 0.52700001 210 70 13
-0.0048028259 6.9589652e-05 0.528 210 70 13
-0.0048028259 0.0017870168 0.528 210 70 13
-0.0048119221 0.002650741 0.52900004 210 70 13
-0.0048119221 0.003511081 0.52900004 210 70 13
-0.0048119221 0.0052317609 0.52900004 210 70 13
-0.0048119221 0.0060921004 0.52900004 210 70 13
-0.0046936707 0.04034948 0.51600003 210 70 13
-0.0046936707 0.041188676 0.51600003 210 70 13
-0.0046936707 0.042867072 0.51600003 210 70 13
-0.0046936707 0.043706268 0.51600003 210 70 13
-0.0046845744 0.044459134 0.51500005 210 70 13
-0.0046845744 0.045296706 0.51500005 210 70 13
-0.0046845744 0.04697185 0.51500005 210 70 13
-0.0046845744 0.047809418 0.51500005 210 70 13
-0.0046845744 0.04864699 0.51500005 210 70 13
-0.0046845744 0.050322134 0.51500005 210 70 13
-0.0046845744 0.051159702 0.51500005 210 70 13
-0.0046845744 0.051997274 0.51500005 210 70 13
-0.0046845744 0.052834846 0.51500005 210 70 13
-0.0046845744 0.054509986 0.51500005 210 70 13
-0.0046845744 0.055347558 0.51500005 210 70 13
-0.0046845744 0.05618513 0.51500005 210 70 13
-0.0046845744 0.057022698 0.51500005 210 70 13
-0.0046845744 0.058697842 0.51500005 210 70 13
-0.0046936707 0.059651017 0.51600003 210 70 13
-0.0049938476 0.083108984 0.54900002 210 70 13
-0.0049756547 0.083695829 0.54700005 210 70 13
-0.0049665589 0.085318796 0.546 210 70 13
-0.0049756547 0.10771541 0.54700005 210 70 13
-0.0049847509 0.10969481 0.54800004 210 70 13
-0.0050211363 0.11139325 0.55200005 210 70 13
-0.0039814622 -0.028535647 0.53300005 210 70 13
-0.0039739921 -0.027616888 0.53200001 210 70 13
-0.0039665219 -0.025837792 0.53100002 210 70 13
-0.0039590523 -0.024927167 0.53000003 210 70 13
-0.0039515826 -0.024019795 0.52900004 210 70 13
-0.0039515826 -0.022299115 0.52900004 210 70 13
-0.0039441125 -0.021398248 0.528 210 70 13
-0.0039441125 -0.020539535 0.528 210 70 13
-0.0039441125 -0.01968082 0.528 210 70 13
-0.0039441125 0.0035044437 0.528 210 70 13
-0.0039515826 0.0052317609 0.52900004 210 70 13
-0.0039515826 0.0060921004 0.52900004 210 70 13
-0.0039515826 0.0069524399 0.52900004 210 70 13
-0.0038544734 0.04034948 0.51600003 210 70 13
-0.0038544734 0.041188676 0.51600003 210 70 13
-0.0038544734 0.042867072 0.51600003 210 70 13
-0.0038544734 0.043706268 0.51600003 210 70 13
-0.0038470034 0.044459134 0.51500005 210 70 13
-0.0038470034 0.045296706 0.51500005 210 70 13
-0.0038470034 0.04697185 0.51500005 210 70 13
-0.0038470034 0.047809418 0.51500005 210 70 13
-0.0038470034 0.04864699 0.51500005 210 70 13
-0.0038395338 0.05022442 0.514 210 70 13
-0.0038395338 0.051060367 0.514 210 70 13
-0.0038395338 0.051896311 0.514 210 70 13
-0.0038395338 0.052732255 0.514 210 70 13
-0.0038470034 0.054509986 0.51500005 210 70 13
-0.0038470034 0.055347558 0.51500005 210 70 13
-0.0038470034 0.05618513 0.51500005 210 70 13
-0.0038470034 0.057022698 0.51500005 210 70 13
-0.0038470034 0.058697842 0.51500005 210 70 13
-0.0038470034 0.059535414 0.51500005 210 70 13
-0.0040711011 0.086048901 0.54500002 210 70 13
-0.0040711011 0.086935259 0.54500002 210 70 13
-0.0040711011 0.087821618 0.54500002 210 70 13
-0.0040636309 0.089429952 0.54400003 210 70 13
-0.0040636309 0.090314686 0.54400003 210 70 13
-0.0040561613 0.091031775 0.54300004 210 70 13
-0.0040561613 0.092797987 0.54300004 210 70 13
-0.0040561613 0.093681097 0.54300004 210 70 13
-0.0040561613 0.094564207 0.54300004 210 70 13
-0.0040486916 0.095271535 0.54200006 210 70 13
-0.0040486916 0.097034499 0.54200006 210 70 13
-0.0040561613 0.098096639 0.54300004 210 70 13
-0.0040561613 0.098979749 0.54300004 210 70 13
-0.0040561613 0.10074597 0.54300004 210 70 13
-0.0040561613 0.10162908 0.54300004 210 70 13
-0.0040636309 0.10270098 0.54400003 210 70 13
-0.0040636309 0.10358571 0.54400003 210 70 13
-0.0040711011 0.10554885 0.54500002 210 70 13
-0.0040711011 0.10643521 0.54500002 210 70 13
-0.00413833 0.11179686 0.55400002 210 70 13
-0.0031146167 -0.028535647 0.53300005 210 70 13
-0.0030795555 -0.017929373 0.52700001 210 70 13
-0.0030795555 -0.017072285 0.52700001 210 70 13
-0.0030737119 -0.016184429 0.52600002 210 70 13
-0.0030737119 -0.014473507 0.52600002 210 70 13
-0.0030737119 -0.013618046 0.52600002 210 70 13
-0.0030737119 -0.012762586 0.52600002 210 70 13
-0.0030678683 -0.011884488 0.52500004 210 70 13
-0.0030678683 -0.010176819 0.52500004 210 70 13
-0.0030678683 -0.0093229851 0.52500004 210 70 13
-0.0030678683 -0.0084691504 0.52500004 210 70 13
-0.0030678683 -0.0067614811 0.52500004 210 70 13
-0.0030678683 -0.0059076473 0.52500004 210 70 13
-0.0030737119 -0.0050634388 0.52600002 210 70 13
-0.0030737119 -0.004207978 0.52600002 210 70 13
-0.0030737119 -0.0024970565 0.52600002 210 70 13
-0.0030737119 -0.0016415956 0.52600002 210 70 13
-0.0030795555 -0.00078762934 0.52700001 210 70 13
-0.0030795555 6.9457856e-05 0.52700001 210 70 13
-0.0030795555 0.0017836322 0.52700001 210 70 13
-0.0030795555 0.0026407193 0.52700001 210 70 13
-0.0030152763 0.04034948 0.51600003 210 70 13
-0.0030152763 0.041188676 0.51600003 210 70 13
-0.0030152763 0.042867072 0.51600003 210 70 13
-0.0030094327 0.043621566 0.51500005 210 70 13
-0.0030094327 0.044459134 0.51500005 210 70 13
-0.0030094327 0.045296706 0.51500005 210 70 13
-0.0030094327 0.04697185 0.51500005 210 70 13
-0.0030094327 0.047809418 0.51500005 210 70 13
-0.0030035891 0.048552532 0.514 210 70 13
-0.0030035891 0.05022442 0.514 210 70 13
-0.0030035891 0.051060367 0.514 210 70 13
-0.0030035891 0.051896311 0.514 210 70 13
-0.0030035891 0.052732255 0.514 210 70 13
-0.0030035891 0.05440414 0.514 210 70 13
-0.0030035891 0.055240087 0.514 210 70 13
-0.0030094327 0.05618513 0.51500005 210 70 13
-0.0030094327 0.057022698 0.51500005 210 70 13
-0.0030094327 0.058697842 0.51500005 210 70 13
-0.0030094327 0.059535414 0.51500005 210 70 13
-0.0032139574 0.082365863 0.55000001 210 70 13
-0.0032022703 0.082957596 0.54800004 210 70 13
-0.0031905829 0.083542816 0.546 210 70 13
-0.0031847395 0.085162535 0.54500002 210 70 13
-0.0031847395 0.086048901 0.54500002 210 70 13
-0.0031788959 0.086775742 0.54400003 210 70 13
-0.0031788959 0.087660477 0.54400003 210 70 13
-0.0031788959 0.089429952 0.54400003 210 70 13
-0.0031730523 0.090148665 0.54300004 210 70 13
-0.0031730523 0.091031775 0.54300004 210 70 13
-0.0031730523 0.092797987 0.54300004 210 70 13
-0.003167209 0.093508571 0.54200006 210 70 13
-0.003167209 0.094390057 0.54200006 210 70 13
-0.003167209 0.095271535 0.54200006 210 70 13
-0.003167209 0.097034499 0.54200006 210 70 13
-0.003167209 0.097915985 0.54200006 210 70 13
-0.0031730523 0.098979749 0.54300004 210 70 13
-0.003167209 0.099678949 0.54200006 210 70 13
-0.0031730523 0.10162908 0.54300004 210 70 13
-0.0031788959 0.10270098 0.54400003 210 70 13
-0.0031788959 0.10358571 0.54400003 210 70 13
-0.0031847395 0.10554885 0.54500002 210 70 13
-0.0031847395 0.10643521 0.54500002 210 70 13
-0.0031964267 0.10771541 0.54700005 210 70 13
-0.0032081136 0.10989499 0.54900002 210 70 13
-0.0022435542 -0.027616888 0.53200001 210 70 13
-0.0022393372 -0.025837792 0.53100002 210 70 13
-0.0022351197 -0.024927167 0.53000003 210 70 13
-0.0022309027 -0.024019795 0.52900004 210 70 13
-0.0022309027 -0.022299115 0.52900004 210 70 13
-0.0022266854 -0.021398248 0.528 210 70 13
-0.0022266854 -0.020539535 0.528 210 70 13
-0.0022224684 -0.019643547 0.52700001 210 70 13
-0.0022224684 -0.017929373 0.52700001 210 70 13
-0.0022224684 -0.017072285 0.52700001 210 70 13
-0.0022182511 -0.016184429 0.52600002 210 70 13
-0.0022182511 -0.014473507 0.52600002 210 70 13
-0.0022182511 -0.013618046 0.52600002 210 70 13
-0.0022140339 -0.012738323 0.52500004 210 70 13
-0.0022140339 -0.011884488 0.52500004 210 70 13
-0.0022140339 -0.010176819 0.52500004 210 70 13
-0.0022140339 -0.0093229851 0.52500004 210 70 13
-0.0022140339 -0.0084691504 0.52500004 210 70 13
-0.0022140339 -0.0067614811 0.52500004 210 70 13
-0.0022140339 -0.0059076473 0.52500004 210 70 13
-0.0022140339 -0.0050538126 0.52500004 210 70 13
-0.0022140339 -0.004199978 0.52500004 210 70 13
-0.0022182511 -0.0024970565 0.52600002 210 70 13
-0.0022182511 -0.0016415956 0.52600002 210 70 13
-0.0022182511 -0.00078613474 0.52600002 210 70 13
-0.0022224684 6.9457856e-05 0.52700001 210 70 13
-0.0022224684 0.0017836322 0.52700001 210 70 13
-0.0022266854 0.0026457303 0.528 210 70 13
-0.0022266854 0.0035044437 0.528 210 70 13
-0.0022266854 0.0052218707 0.528 210 70 13
-0.0022266854 0.0060805841 0.528 210 70 13
-0.0022309027 0.0069524399 0.52900004 210 70 13
-0.0022309027 0.0078127803 0.52900004 210 70 13
-0.002176079 0.04034948 0.51600003 210 70 13
-0.002176079 0.041188676 0.51600003 210 70 13
-0.002176079 0.042867072 0.51600003 210 70 13
-0.0021718619 0.043621566 0.51500005 210 70 13
-0.0021718619 0.044459134 0.51500005 210 70 13
-0.0021718619 0.045296706 0.51500005 210 70 13
-0.0021718619 0.04697185 0.51500005 210 70 13
-0.0021718619 0.047809418 0.51500005 210 70 13
-0.0021718619 0.05618513 0.51500005 210 70 13
-0.0021718619 0.057022698 0.51500005 210 70 13
-0.0021718619 0.058697842 0.51500005 210 70 13
-0.0021718619 0.059535414 0.51500005 210 70 13
-0.0023152467 0.082216114 0.54900002 210 70 13
-0.0023068124 0.082806215 0.54700005 210 70 13
-0.0023025952 0.083542816 0.546 210 70 13
-0.0022983779 0.085162535 0.54500002 210 70 13
-0.0022941609 0.085891008 0.54400003 210 70 13
-0.0022941609 0.086775742 0.54400003 210 70 13
-0.0022899436 0.087499335 0.54300004 210 70 13
-0.0022899436 0.089265555 0.54300004 210 70 13
-0.0022899436 0.090148665 0.54300004 210 70 13
-0.0022899436 0.091031775 0.54300004 210 70 13
-0.0022857264 0.092627086 0.54200006 210 70 13
-0.0022857264 0.093508571 0.54200006 210 70 13
-0.0022857264 0.094390057 0.54200006 210 70 13
-0.0022857264 0.095271535 0.54200006 210 70 13
-0.0022857264 0.097034499 0.54200006 210 70 13
-0.0022857264 0.097915985 0.54200006 210 70 13
-0.0022857264 0.098797463 0.54200006 210 70 13
-0.0022857264 0.099678949 0.54200006 210 70 13
-0.0022899436 0.10162908 0.54300004 210 70 13
-0.0022899436 0.10251219 0.54300004 210 70 13
-0.0022941609 0.10358571 0.54400003 210 70 13
-0.0022941609 0.10535518 0.54400003 210 70 13
-0.0022983779 0.10643521 0.54500002 210 70 13
-0.0023025952 0.10751849 0.546 210 70 13
-0.0023152467 0.10989499 0.54900002 210 70 13
-0.0013783354 -0.027616888 0.53200001 210 70 13
-0.0013757446 -0.025837792 0.53100002 210 70 13
-0.0013731536 -0.024927167 0.53000003 210 70 13
-0.0013731536 -0.0240652 0.53000003 210 70 13
-0.0013705627 -0.022299115 0.52900004 210 70 13
-0.001367972 -0.021398248 0.528 210 70 13
-0.001367972 -0.020539535 0.528 210 70 13
-0.001367972 -0.01968082 0.528 210 70 13
-0.0013653812 -0.017929373 0.52700001 210 70 13
-0.0013653812 -0.017072285 0.52700001 210 70 13
-0.0013627902 -0.016184429 0.52600002 210 70 13
-0.0013627902 -0.014473507 0.52600002 210 70 13
-0.0013601993 -0.013592157 0.52500004 210 70 13
-0.0013601993 -0.012738323 0.52500004 210 70 13
-0.0013601993 -0.011884488 0.52500004 210 70 13
-0.0013601993 -0.010176819 0.52500004 210 70 13
-0.0013601993 -0.0093229851 0.52500004 210 70 13
-0.0013601993 -0.0084691504 0.52500004 210 70 13
-0.0013576085 -0.0076008104 0.52400005 210 70 13
-0.0013601993 -0.0059076473 0.52500004 210 70 13
-0.0013601993 -0.0050538126 0.52500004 210 70 13
-0.0013601993 -0.004199978 0.52500004 210 70 13
-0.0013601993 -0.0024923093 0.52500004 210 70 13
-0.0013627902 -0.0016415956 0.52600002 210 70 13
-0.0013627902 -0.00078613474 0.52600002 210 70 13
-0.0013627902 6.9326059e-05 0.52600002 210 70 13
-0.0013653812 0.0017836322 0.52700001 210 70 13
-0.0013653812 0.0026407193 0.52700001 210 70 13
-0.0013653812 0.0034978066 0.52700001 210 70 13
-0.001367972 0.0052218707 0.528 210 70 13
-0.001367972 0.0060805841 0.528 210 70 13
-0.001367972 0.0069392985 0.528 210 70 13
-0.0013705627 0.0078127803 0.52900004 210 70 13
-0.0013705627 0.0095334593 0.52900004 210 70 13
-0.0013317 0.048552532 0.514 210 70 13
-0.0013317 0.05022442 0.514 210 70 13
-0.0013317 0.052732255 0.514 210 70 13
-0.0013317 0.05440414 0.514 210 70 13
-0.0013317 0.055240087 0.514 210 70 13
-0.0014171982 0.0819166 0.54700005 210 70 13
-0.0014146074 0.082654826 0.546 210 70 13
-0.0014120165 0.083389811 0.54500002 210 70 13
-0.0014120165 0.085162535 0.54500002 210 70 13
-0.0014094256 0.085891008 0.54400003 210 70 13
-0.0014068348 0.086616226 0.54300004 210 70 13
-0.0014068348 0.087499335 0.54300004 210 70 13
-0.0014068348 0.089265555 0.54300004 210 70 13
-0.0014068348 0.10251219 0.54300004 210 70 13
-0.0014068348 0.1033953 0.54300004 210 70 13
-0.0014094256 0.10535518 0.54400003 210 70 13
-0.0014120165 0.10643521 0.54500002 210 70 13
-0.0014146074 0.10751849 0.546 210 70 13
-0.0014223799 0.10989499 0.54900002 210 70 13
-0.00051408092 -0.027668802 0.53300005 210 70 13
-0.00051215192 -0.025837792 0.53100002 210 70 13
-0.00051118742 -0.024927167 0.53000003 210 70 13
-0.00051118742 -0.0240652 0.53000003 210 70 13
-0.00051022292 -0.022299115 0.52900004 210 70 13
-0.00051022292 -0.021438776 0.52900004 210 70 13
-0.00050925842 -0.020539535 0.528 210 70 13
-0.00050925842 -0.01968082 0.528 210 70 13
-0.00050829392 -0.017929373 0.52700001 210 70 13
-0.00050829392 -0.017072285 0.52700001 210 70 13
-0.00050732942 -0.016184429 0.52600002 210 70 13
-0.00050732942 -0.014473507 0.52600002 210 70 13
-0.00050636492 -0.013592157 0.52500004 210 70 13
-0.00050636492 -0.012738323 0.52500004 210 70 13
-0.00050636492 -0.0024923093 0.52500004 210 70 13
-0.00050636492 -0.0016384746 0.52500004 210 70 13
-0.00050732942 -0.00078613474 0.52600002 210 70 13
-0.00050732942 6.9326059e-05 0.52600002 210 70 13
-0.00050732942 0.0017802477 0.52600002 210 70 13
-0.00050829392 0.0026407193 0.52700001 210 70 13
-0.00050829392 0.0034978066 0.52700001 210 70 13
-0.00050829392 0.005211981 0.52700001 210 70 13
-0.00050925842 0.0060805841 0.528 210 70 13
-0.00050925842 0.0069392985 0.528 210 70 13
-0.00050925842 0.0077980119 0.528 210 70 13
-0.00050925842 0.0095154392 0.528 210 70 13
-0.00051022292 0.010393799 0.52900004 210 70 13
-0.00049864885 0.040427674 0.51700002 210 70 13
-0.00049768435 0.041188676 0.51600003 210 70 13
-0.00049768435 0.042867072 0.51600003 210 70 13
-0.00049671985 0.043621566 0.51500005 210 70 13
-0.00049671985 0.044459134 0.51500005 210 70 13
-0.00049671985 0.045296706 0.51500005 210 70 13
-0.00049671985 0.04697185 0.51500005 210 70 13
-0.00049575535 0.047716588 0.514 210 70 13
-0.00049575535 0.048552532 0.514 210 70 13
-0.00049575535 0.05022442 0.514 210 70 13
-0.00049575535 0.051060367 0.514 210 70 13
-0.00049575535 0.051896311 0.514 210 70 13
-0.00049575535 0.052732255 0.514 210 70 13
-0.00049575535 0.05440414 0.514 210 70 13
-0.00049575535 0.055240087 0.514 210 70 13
-0.00049575535 0.056076031 0.514 210 70 13
-0.00049575535 0.056911975 0.514 210 70 13
-0.00049671985 0.058697842 0.51500005 210 70 13
-0.00049671985 0.059535414 0.51500005 210 70 13
-0.000529513 0.080430381 0.54900002 210 70 13
-0.00052276149 0.089982644 0.54200006 210 70 13
-0.00052276149 0.090864122 0.54200006 210 70 13
-0.00052276149 0.092627086 0.54200006 210 70 13
-0.00052276149 0.093508571 0.54200006 210 70 13
-0.00052276149 0.094390057 0.54200006 210 70 13
-0.00052276149 0.095271535 0.54200006 210 70 13
-0.00052276149 0.097034499 0.54200006 210 70 13
-0.00052276149 0.097915985 0.54200006 210 70 13
-0.00052276149 0.098797463 0.54200006 210 70 13
-0.00052276149 0.099678949 0.54200006 210 70 13
-0.00052276149 0.10144191 0.54200006 210 70 13
-0.0005304775 0.11009516 0.55000001 210 70 13
0.00035144066 -0.025837792 0.53100002 210 70 13
0.00035077881 -0.024927167 0.53000003 210 70 13
0.00035077881 -0.0240652 0.53000003 210 70 13
0.0003468077 -0.011861851 0.52400005 210 70 13
0.0003468077 -0.010157434 0.52400005 210 70 13
0.0003468077 -0.0093052266 0.52400005 210 70 13
0.0003468077 -0.008453018 0.52400005 210 70 13
0.0003468077 -0.0076008104 0.52400005 210 70 13
0.0003468077 -0.0058963946 0.52400005 210 70 13
0.0003468077 -0.0050441865 0.52400005 210 70 13
0.0003468077 -0.0041919784 0.52400005 210 70 13
0.00034217478 0.03958685 0.51700002 210 70 13
0.00034217478 0.040427674 0.51700002 210 70 13
0.00034151293 0.041188676 0.51600003 210 70 13
0.00034151293 0.042867072 0.51600003 210 70 13
0.00034085111 0.043621566 0.51500005 210 70 13
0.00034085111 0.044459134 0.51500005 210 70 13
0.00034085111 0.045296706 0.51500005 210 70 13
0.00034085111 0.04697185 0.51500005 210 70 13
0.00034018926 0.047716588 0.514 210 70 13
0.00034018926 0.048552532 0.514 210 70 13
0.00034018926 0.05022442 0.514 210 70 13
0.00034018926 0.051060367 0.514 210 70 13
0.00034018926 0.051896311 0.514 210 70 13
0.00034018926 0.052732255 0.514 210 70 13
0.00034018926 0.05440414 0.514 210 70 13
0.00034018926 0.055240087 0.514 210 70 13
0.00034018926 0.056076031 0.514 210 70 13
0.00034018926 0.056911975 0.514 210 70 13
0.00034085111 0.058697842 0.51500005 210 70 13
0.00034085111 0.059535414 0.51500005 210 70 13
0.00036136835 0.081766844 0.546 210 70 13
0.0003607065 0.082503453 0.54500002 210 70 13
0.0003607065 0.083389811 0.54500002 210 70 13
0.00036004465 0.085006274 0.54400003 210 70 13
0.00036004465 0.085891008 0.54400003 210 70 13
0.0003593828 0.086616226 0.54300004 210 70 13
0.0003593828 0.087499335 0.54300004 210 70 13
0.0003593828 0.089265555 0.54300004 210 70 13
0.00035872095 0.089982644 0.54200006 210 70 13
0.00035872095 0.090864122 0.54200006 210 70 13
0.00035872095 0.092627086 0.54200006 210 70 13
0.00035872095 0.093508571 0.54200006 210 70 13
0.00035872095 0.094390057 0.54200006 210 70 13
0.00035872095 0.095271535 0.54200006 210 70 13
0.00035872095 0.097034499 0.54200006 210 70 13
0.00035872095 0.097915985 0.54200006 210 70 13
0.00035872095 0.098797463 0.54200006 210 70 13
0.00035872095 0.099678949 0.54200006 210 70 13
0.00035872095 0.10144191 0.54200006 210 70 13
0.0003593828 0.10251219 0.54300004 210 70 13
0.0003593828 0.1033953 0.54300004 210 70 13
0.00036004465 0.10535518 0.54400003 210 70 13
0.0003607065 0.10643521 0.54500002 210 70 13
0.0003620302 0.10771541 0.54700005 210 70 13
0.0012104568 -0.022299115 0.52900004 210 70 13
0.0012104568 -0.021438776 0.52900004 210 70 13
0.0012081687 -0.020539535 0.528 210 70 13
0.0012081687 -0.01968082 0.528 210 70 13
0.0012058804 -0.017929373 0.52700001 210 70 13
0.0012058804 -0.017072285 0.52700001 210 70 13
0.0012035923 -0.016184429 0.52600002 210 70 13
0.0012035923 -0.014473507 0.52600002 210 70 13
0.0012013041 -0.013592157 0.52500004 210 70 13
0.0012013041 -0.012738323 0.52500004 210 70 13
0.0012013041 -0.011884488 0.52500004 210 70 13
0.0012013041 -0.010176819 0.52500004 210 70 13
0.0011990159 -0.0093052266 0.52400005 210 70 13
0.0011990159 -0.008453018 0.52400005 210 70 13
0.0011990159 -0.0076008104 0.52400005 210 70 13
0.0011990159 -0.0058963946 0.52400005 210 70 13
0.0011990159 -0.0050441865 0.52400005 210 70 13
0.0011990159 -0.0041919784 0.52400005 210 70 13
0.0012013041 -0.0024923093 0.52500004 210 70 13
0.0012013041 -0.0016384746 0.52500004 210 70 13
0.0012013041 -0.0007846402 0.52500004 210 70 13
0.0012013041 6.9194255e-05 0.52500004 210 70 13
0.0012035923 0.0017802477 0.52600002 210 70 13
0.0012035923 0.0026357085 0.52600002 210 70 13
0.0012035923 0.0034911693 0.52600002 210 70 13
0.0012058804 0.005211981 0.52700001 210 70 13
0.0012058804 0.0060690679 0.52700001 210 70 13
0.0012058804 0.0069261556 0.52700001 210 70 13
0.0012081687 0.0077980119 0.528 210 70 13
0.0012081687 0.0095154392 0.528 210 70 13
0.0012081687 0.010374152 0.528 210 70 13
0.0012104568 0.011254139 0.52900004 210 70 13
0.0011829985 0.040427674 0.51700002 210 70 13
0.0011807103 0.041188676 0.51600003 210 70 13
0.0011807103 0.042867072 0.51600003 210 70 13
0.001178422 0.043621566 0.51500005 210 70 13
0.001178422 0.044459134 0.51500005 210 70 13
0.001178422 0.045296706 0.51500005 210 70 13
0.001178422 0.04697185 0.51500005 210 70 13
0.0011761339 0.047716588 0.514 210 70 13
0.0011761339 0.048552532 0.514 210 70 13
0.0011761339 0.05022442 0.514 210 70 13
0.0011761339 0.051060367 0.514 210 70 13
0.0011761339 0.051896311 0.514 210 70 13
0.0011761339 0.052732255 0.514 210 70 13
0.0011761339 0.05440414 0.514 210 70 13
0.0011761339 0.055240087 0.514 210 70 13
0.0011761339 0.056076031 0.514 210 70 13
0.0011761339 0.056911975 0.514 210 70 13
0.0011761339 0.058583863 0.514 210 70 13
0.001178422 0.059535414 0.51500005 210 70 13
0.0012516443 0.080137372 0.54700005 210 70 13
0.0012493562 0.081766844 0.546 210 70 13
0.0012470681 0.082503453 0.54500002 210 70 13
0.0012447798 0.083236806 0.54400003 210 70 13
0.0012447798 0.085006274 0.54400003 210 70 13
0.0012424915 0.085733116 0.54300004 210 70 13
0.0012424915 0.086616226 0.54300004 210 70 13
0.0012402034 0.087338194 0.54200006 210 70 13
0.0012402034 0.089101158 0.54200006 210 70 13
0.0012402034 0.089982644 0.54200006 210 70 13
0.0012402034 0.090864122 0.54200006 210 70 13
0.0012402034 0.092627086 0.54200006 210 70 13
0.0012379152 0.093336053 0.54100001 210 70 13
0.0012379152 0.094215907 0.54100001 210 70 13
0.0012379152 0.095095761 0.54100001 210 70 13
0.0012379152 0.096855476 0.54100001 210 70 13
0.0012402034 0.097915985 0.54200006 210 70 13
0.0012402034 0.098797463 0.54200006 210 70 13
0.0012402034 0.099678949 0.54200006 210 70 13
0.0012402034 0.10144191 0.54200006 210 70 13
0.0012424915 0.10251219 0.54300004 210 70 13
0.0012424915 0.1033953 0.54300004 210 70 13
0.0012447798 0.10535518 0.54400003 210 70 13
0.0012470681 0.10643521 0.54500002 210 70 13
0.0012516443 0.10771541 0.54700005 210 70 13
0.0020786258 -0.025837792 0.53100002 210 70 13
0.0020747113 -0.024927167 0.53000003 210 70 13
0.0020747113 -0.0240652 0.53000003 210 70 13
0.0020707967 -0.022299115 0.52900004 210 70 13
0.0020707967 -0.021438776 0.52900004 210 70 13
0.0020668821 -0.020539535 0.528 210 70 13
0.0020668821 -0.01968082 0.528 210 70 13
0.0020629675 -0.017929373 0.52700001 210 70 13
0.0020629675 -0.017072285 0.52700001 210 70 13
0.0020590529 -0.016184429 0.52600002 210 70 13
0.0020551386 -0.014445991 0.52500004 210 70 13
0.0020551386 -0.013592157 0.52500004 210 70 13
0.0020551386 -0.012738323 0.52500004 210 70 13
0.0020551386 -0.011884488 0.52500004 210 70 13
0.002051224 -0.010157434 0.52400005 210 70 13
0.002051224 -0.0093052266 0.52400005 210 70 13
0.002051224 -0.008453018 0.52400005 210 70 13
0.002051224 -0.0076008104 0.52400005 210 70 13
0.002051224 -0.0058963946 0.52400005 210 70 13
0.002051224 -0.0050441865 0.52400005 210 70 13
0.002051224 -0.0041919784 0.52400005 210 70 13
0.002051224 -0.0024875619 0.52400005 210 70 13
0.002051224 -0.0016353538 0.52400005 210 70 13
0.0020551386 -0.0007846402 0.52500004 210 70 13
0.0020551386 6.9194255e-05 0.52500004 210 70 13
0.0020551386 0.0017768631 0.52500004 210 70 13
0.0020590529 0.0026357085 0.52600002 210 70 13
0.0020590529 0.0034911693 0.52600002 210 70 13
0.0020590529 0.0052020908 0.52600002 210 70 13
0.0020629675 0.0060690679 0.52700001 210 70 13
0.0020629675 0.0069261556 0.52700001 210 70 13
0.0020629675 0.007783243 0.52700001 210 70 13
0.0020668821 0.0095154392 0.528 210 70 13
0.0020668821 0.010374152 0.528 210 70 13
0.0020668821 0.011232866 0.528 210 70 13
0.0020707967 0.012974819 0.52900004 210 70 13
0.0021490878 0.079537511 0.54900002 210 70 13
0.0021373441 0.079990864 0.546 210 70 13
0.0021334295 0.081617087 0.54500002 210 70 13
0.0021295149 0.082352065 0.54400003 210 70 13
0.0021295149 0.083236806 0.54400003 210 70 13
0.0021256004 0.084850013 0.54300004 210 70 13
0.0021256004 0.085733116 0.54300004 210 70 13
0.0021256004 0.086616226 0.54300004 210 70 13
0.0021216858 0.087338194 0.54200006 210 70 13
0.0021216858 0.089101158 0.54200006 210 70 13
0.0021216858 0.089982644 0.54200006 210 70 13
0.0021216858 0.090864122 0.54200006 210 70 13
0.0021177714 0.092456192 0.54100001 210 70 13
0.0021177714 0.093336053 0.54100001 210 70 13
0.0021177714 0.094215907 0.54100001 210 70 13
0.0021177714 0.095095761 0.54100001 210 70 13
0.0021177714 0.096855476 0.54100001 210 70 13
0.0021177714 0.09773533 0.54100001 210 70 13
0.0021216858 0.098797463 0.54200006 210 70 13
0.0021216858 0.099678949 0.54200006 210 70 13
0.0021216858 0.10144191 0.54200006 210 70 13
0.0021216858 0.1023234 0.54200006 210 70 13
0.0021256004 0.1033953 0.54300004 210 70 13
0.0021295149 0.10535518 0.54400003 210 70 13
0.0021334295 0.10643521 0.54500002 210 70 13
0.0021451733 0.10791232 0.54800004 210 70 13
0.0029422184 -0.025837792 0.53100002 210 70 13
0.0029422184 -0.024974199 0.53100002 210 70 13
0.0029366775 -0.0240652 0.53000003 210 70 13
0.0029311366 -0.022299115 0.52900004 210 70 13
0.0029311366 -0.021438776 0.52900004 210 70 13
0.0029255957 -0.020539535 0.528 210 70 13
0.0029255957 -0.01968082 0.528 210 70 13
0.0029200548 -0.017929373 0.52700001 210 70 13
0.0029200548 -0.017072285 0.52700001 210 70 13
0.0029145137 -0.016184429 0.52600002 210 70 13
0.002908973 -0.014445991 0.52500004 210 70 13
0.002908973 -0.013592157 0.52500004 210 70 13
0.002908973 -0.012738323 0.52500004 210 70 13
0.0029034321 -0.011861851 0.52400005 210 70 13
0.0029034321 -0.010157434 0.52400005 210 70 13
0.0029034321 -0.0093052266 0.52400005 210 70 13
0.0029034321 -0.008453018 0.52400005 210 70 13
0.0029034321 -0.0076008104 0.52400005 210 70 13
0.0029034321 -0.0058963946 0.52400005 210 70 13
0.0029034321 -0.0050441865 0.52400005 210 70 13
0.0029034321 -0.0041919784 0.52400005 210 70 13
0.0029034321 -0.0024875619 0.52400005 210 70 13
0.0029034321 -0.0016353538 0.52400005 210 70 13
0.0029034321 -0.00078314566 0.52400005 210 70 13
0.0029034321 6.9062458e-05 0.52400005 210 70 13
0.002908973 0.0017768631 0.52500004 210 70 13
0.002908973 0.0026306976 0.52500004 210 70 13
0.002908973 0.003484532 0.52500004 210 70 13
0.0029145137 0.0052020908 0.52600002 210 70 13
0.0029145137 0.0060575516 0.52600002 210 70 13
0.0029200548 0.0069261556 0.52700001 210 70 13
0.0029200548 0.007783243 0.52700001 210 70 13
0.0029200548 0.0094974171 0.52700001 210 70 13
0.0029255957 0.010374152 0.528 210 70 13
0.0029255957 0.011232866 0.528 210 70 13
0.0029311366 0.012974819 0.52900004 210 70 13
0.0028591049 0.041188676 0.51600003 210 70 13
0.0028591049 0.042867072 0.51600003 210 70 13
0.002853564 0.043621566 0.51500005 210 70 13
0.002853564 0.044459134 0.51500005 210 70 13
0.002853564 0.045296706 0.51500005 210 70 13
0.002853564 0.04697185 0.51500005 210 70 13
0.0028480231 0.047716588 0.514 210 70 13
0.0028480231 0.048552532 0.514 210 70 13
0.0028480231 0.05022442 0.514 210 70 13
0.0028480231 0.051060367 0.514 210 70 13
0.0028480231 0.051896311 0.514 210 70 13
0.0028480231 0.052732255 0.514 210 70 13
0.0028480231 0.05440414 0.514 210 70 13
0.0028480231 0.055240087 0.514 210 70 13
0.0028480231 0.056076031 0.514 210 70 13
0.0028480231 0.056911975 0.514 210 70 13
0.0028480231 0.058583863 0.514 210 70 13
0.002853564 0.059535414 0.51500005 210 70 13
0.0030364138 0.079392634 0.54800004 210 70 13
0.003025332 0.079990864 0.546 210 70 13
0.0030419547 0.10810926 0.54900002 210 70 13
0.0038058111 -0.025837792 0.53100002 210 70 13
0.0038058111 -0.024974199 0.53100002 210 70 13
0.0037986438 -0.0240652 0.53000003 210 70 13
0.0037986438 -0.022341268 0.53000003 210 70 13
0.0037914766 -0.021438776 0.52900004 210 70 13
0.0037914766 -0.020578435 0.52900004 210 70 13
0.0037843091 -0.01968082 0.528 210 70 13
0.0037843091 0.011232866 0.528 210 70 13
0.0037843091 0.012950293 0.528 210 70 13
0.0037914766 0.01383516 0.52900004 210 70 13
0.0036983024 0.041188676 0.51600003 210 70 13
0.0036983024 0.042867072 0.51600003 210 70 13
0.003691135 0.043621566 0.51500005 210 70 13
0.003691135 0.044459134 0.51500005 210 70 13
0.003691135 0.045296706 0.51500005 210 70 13
0.003691135 0.04697185 0.51500005 210 70 13
0.0036839677 0.047716588 0.514 210 70 13
0.0036839677 0.048552532 0.514 210 70 13
0.0036839677 0.05022442 0.514 210 70 13
0.0036839677 0.051060367 0.514 210 70 13
0.0036839677 0.051896311 0.514 210 70 13
0.0036839677 0.052732255 0.514 210 70 13
0.0036839677 0.05440414 0.514 210 70 13
0.0036839677 0.055240087 0.514 210 70 13
0.0036839677 0.056076031 0.514 210 70 13
0.0036839677 0.056911975 0.514 210 70 13
0.0036839677 0.058583863 0.514 210 70 13
0.003691135 0.059535414 0.51500005 210 70 13
0.003691135 0.060372982 0.51500005 210 70 13
0.0039061524 0.081617087 0.54500002 210 70 13
0.003891818 0.084850013 0.54300004 210 70 13
0.003891818 0.085733116 0.54300004 210 70 13
0.0038846505 0.086456709 0.54200006 210 70 13
0.0038846505 0.087338194 0.54200006 210 70 13
0.0038846505 0.089101158 0.54200006 210 70 13
0.0038846505 0.089982644 0.54200006 210 70 13
0.0038774833 0.090696484 0.54100001 210 70 13
0.0038774833 0.092456192 0.54100001 210 70 13
0.0038774833 0.093336053 0.54100001 210 70 13
0.0038774833 0.094215907 0.54100001 210 70 13
0.0038774833 0.095095761 0.54100001 210 70 13
0.0038774833 0.096855476 0.54100001 210 70 13
0.0038774833 0.09773533 0.54100001 210 70 13
0.0038846505 0.098797463 0.54200006 210 70 13
0.0038846505 0.099678949 0.54200006 210 70 13
0.0038846505 0.10144191 0.54200006 210 70 13
0.0038846505 0.1023234 0.54200006 210 70 13
0.003891818 0.1033953 0.54300004 210 70 13
0.0038989852 0.10535518 0.54400003 210 70 13
0.0039061524 0.10643521 0.54500002 210 70 13
0.004634229 -0.017929373 0.52700001 210 70 13
0.004634229 -0.017072285 0.52700001 210 70 13
0.0046254355 -0.016184429 0.52600002 210 70 13
0.0046166419 -0.014445991 0.52500004 210 70 13
0.0046166419 -0.013592157 0.52500004 210 70 13
0.0046166419 -0.012738323 0.52500004 210 70 13
0.0046078484 -0.011861851 0.52400005 210 70 13
0.0046078484 -0.010157434 0.52400005 210 70 13
0.0046078484 -0.0093052266 0.52400005 210 70 13
0.0046078484 -0.008453018 0.52400005 210 70 13
0.0046078484 -0.0076008104 0.52400005 210 70 13
0.0046078484 -0.0058963946 0.52400005 210 70 13
0.0046078484 -0.0050441865 0.52400005 210 70 13
0.0046078484 -0.0041919784 0.52400005 210 70 13
0.0046078484 -0.0024875619 0.52400005 210 70 13
0.0046078484 -0.0016353538 0.52400005 210 70 13
0.0046078484 -0.00078314566 0.52400005 210 70 13
0.0046078484 6.9062458e-05 0.52400005 210 70 13
0.0046078484 0.0017734786 0.52400005 210 70 13
0.0046166419 0.0026306976 0.52500004 210 70 13
0.0046166419 0.003484532 0.52500004 210 70 13
0.0046166419 0.0051922011 0.52500004 210 70 13
0.0046254355 0.0060575516 0.52600002 210 70 13
0.0046254355 0.0069130128 0.52600002 210 70 13
0.004634229 0.007783243 0.52700001 210 70 13
0.004634229 0.0094974171 0.52700001 210 70 13
0.004634229 0.010354504 0.52700001 210 70 13
0.0045374995 0.041188676 0.51600003 210 70 13
0.0045374995 0.042867072 0.51600003 210 70 13
0.004528706 0.043621566 0.51500005 210 70 13
0.004528706 0.044459134 0.51500005 210 70 13
0.004528706 0.045296706 0.51500005 210 70 13
0.004528706 0.04697185 0.51500005 210 70 13
0.0045199124 0.047716588 0.514 210 70 13
0.0045199124 0.048552532 0.514 210 70 13
0.0045199124 0.05022442 0.514 210 70 13
0.0045199124 0.051060367 0.514 210 70 13
0.0045199124 0.051896311 0.514 210 70 13
