ply
format ascii 1.0
comment PCL generated
element vertex 998
property float x
property float y
property float z
property uchar red
property uchar green
property uchar blue
element camera 0
property float view_px
property float view_py
property float view_pz
property float x_axisx
property float x_axisy
property float x_axisz
property float y_axisx
property float y_axisy
property float y_axisz
property float z_axisx
property float z_axisy
property float z_axisz
property float focal
property float scalex
property float scaley
property float centerx
property float centery
property int viewportx
property int viewporty
property float k1
property float k2
end_header
-0.013398794 0.038259953 0.061056077 109 14 163
-0.012549839 0.038259953 0.061056077 109 14 163
-0.010832543 0.038234897 0.062056065 109 14 163
-0.0099852141 0.038234897 0.062056065 109 14 163
-0.0091217533 0.038209837 0.063056052 109 14 163
-0.0082760509 0.038209841 0.063056052 109 14 163
-0.0065846452 0.038209841 0.063056052 109 14 163
-0.0057293167 0.038184781 0.064056039 109 14 163
-0.0048852405 0.038184781 0.064056039 109 14 163
-0.0031970884 0.038184781 0.064056039 109 14 163
-0.0023530119 0.038184781 0.064056039 109 14 163
-0.0015089356 0.038184781 0.064056039 109 14 163
-0.00066485931 0.038184781 0.064056039 109 14 163
0.0010232934 0.038184781 0.064056039 109 14 163
0.0018673695 0.038184781 0.064056039 109 14 163
0.002711446 0.038184781 0.064056039 109 14 163
0.0043995986 0.038184781 0.064056039 109 14 163
0.0052436749 0.038184781 0.064056039 109 14 163
0.006100894 0.038209841 0.063056052 109 14 163
0.0069465972 0.038209841 0.063056052 109 14 163
0.008638002 0.038209841 0.063056052 109 14 163
0.0094837043 0.038209841 0.063056052 109 14 163
0.010350681 0.038234897 0.062056065 109 14 163
0.01204534 0.038234897 0.062056065 109 14 163
0.012918822 0.038259953 0.061056077 109 14 163
0.013767777 0.038259953 0.061056077 109 14 163
0.014646139 0.03828501 0.06005609 109 14 163
0.0163473 0.03828501 0.06005609 109 14 163
0.019984614 0.038435355 0.054056048 109 14 163
0.020844953 0.038435355 0.054056048 109 14 163
0.02174771 0.038460411 0.053056061 109 14 163
0.022609677 0.038460411 0.053056061 109 14 163
0.024380906 0.038485467 0.052056074 109 14 163
-0.023116684 0.039349061 0.052056074 109 14 163
-0.02213151 0.039269008 0.055056095 109 14 163
-0.021194994 0.039215639 0.057056069 109 14 163
-0.02030226 0.039188959 0.058056056 109 14 163
-0.018594591 0.039188959 0.058056056 109 14 163
-0.017708361 0.039162274 0.059056044 109 14 163
-0.016825385 0.03913559 0.06005609 109 14 163
-0.015124221 0.03913559 0.06005609 109 14 163
-0.01424775 0.039108906 0.061056077 109 14 163
-0.013398794 0.039108906 0.061056077 109 14 163
-0.012527201 0.039082222 0.062056065 109 14 163
-0.010832543 0.039082222 0.062056065 109 14 163
-0.0099852141 0.039082222 0.062056065 109 14 163
-0.0091217533 0.039055541 0.063056052 109 14 163
-0.0082760509 0.039055541 0.063056052 109 14 163
-0.0065846452 0.039055541 0.063056052 109 14 163
-0.0057389429 0.039055541 0.063056052 109 14 163
-0.0048932405 0.039055541 0.063056052 109 14 163
-0.0032018353 0.039055541 0.063056052 109 14 163
0.006100894 0.039055541 0.063056052 109 14 163
0.0069465972 0.039055541 0.063056052 109 14 163
0.008638002 0.039055541 0.063056052 109 14 163
0.0094837043 0.039055541 0.063056052 109 14 163
0.010329407 0.039055541 0.063056052 109 14 163
0.01204534 0.039082225 0.062056065 109 14 163
0.012892668 0.039082225 0.062056065 109 14 163
0.013739998 0.039082225 0.062056065 109 14 163
0.014616732 0.03910891 0.061056077 109 14 163
0.016314643 0.03910891 0.061056077 109 14 163
0.019906284 0.039242327 0.056056082 109 14 163
0.020844953 0.039295692 0.054056048 109 14 163
0.021959795 0.039455794 0.048056066 109 14 163
0.022873936 0.039482478 0.047056079 109 14 163
0.024380906 0.039349064 0.052056074 109 14 163
0.025293419 0.039375745 0.051056087 109 14 163
-0.022212563 0.040184341 0.053056061 109 14 163
-0.021272797 0.040127724 0.055056095 109 14 163
-0.020339534 0.0400711 0.057056069 109 14 163
-0.018594591 0.040042792 0.058056056 109 14 163
-0.017740756 0.040042792 0.058056056 109 14 163
-0.0023530116 0.039872933 0.064056039 109 14 163
-0.0015089356 0.039872933 0.064056039 109 14 163
-0.0006648592 0.039872933 0.064056039 109 14 163
0.0010232935 0.039872933 0.064056039 109 14 163
0.0018673697 0.039872933 0.064056039 109 14 163
0.0027114463 0.039872933 0.064056039 109 14 163
0.0043995986 0.039872933 0.064056039 109 14 163
0.0052436749 0.039872933 0.064056039 109 14 163
0.019906284 0.040099412 0.056056082 109 14 163
0.020804163 0.040127724 0.055056095 109 14 163
0.021705292 0.040156033 0.054056048 109 14 163
0.022873936 0.040354203 0.047056079 109 14 163
0.024380906 0.040212654 0.052056074 109 14 163
0.025293419 0.040240962 0.051056087 109 14 163
0.026158638 0.040240962 0.051056087 109 14 163
-0.016825384 0.040836751 0.06005609 109 14 163
-0.015124221 0.040836755 0.06005609 109 14 163
-0.01424775 0.040806819 0.061056077 109 14 163
-0.013398794 0.040806819 0.061056077 109 14 163
-0.012527201 0.040776882 0.062056065 109 14 163
-0.010832543 0.040776882 0.062056065 109 14 163
-0.0099852141 0.040776882 0.062056065 109 14 163
-0.0091217533 0.040746946 0.063056052 109 14 163
-0.0082760509 0.04074695 0.063056052 109 14 163
-0.006573393 0.040717009 0.064056039 109 14 163
-0.0057293167 0.040717009 0.064056039 109 14 163
-0.0048852405 0.040717009 0.064056039 109 14 163
-0.0031970881 0.040717009 0.064056039 109 14 163
-0.0023498908 0.040687073 0.065056086 109 14 163
-0.0015074409 0.040687073 0.065056086 109 14 163
-0.00066499098 0.040687073 0.065056086 109 14 163
0.0010199089 0.040687073 0.065056086 109 14 163
0.0018623588 0.040687073 0.065056086 109 14 163
0.002704809 0.040687073 0.065056086 109 14 163
0.0043995986 0.040717009 0.064056039 109 14 163
0.0052436749 0.040717009 0.064056039 109 14 163
0.0060877511 0.040717009 0.064056039 109 14 163
0.0069318274 0.040717009 0.064056039 109 14 163
0.00861998 0.040717013 0.064056039 109 14 163
0.0094640562 0.040717013 0.064056039 109 14 163
0.010329407 0.04074695 0.063056052 109 14 163
0.012020812 0.04074695 0.063056052 109 14 163
0.012866515 0.04074695 0.063056052 109 14 163
0.013739998 0.040776882 0.062056065 109 14 163
0.014587327 0.040776882 0.062056065 109 14 163
0.016281983 0.040776882 0.062056065 109 14 163
0.017163599 0.040806822 0.061056077 109 14 163
0.022609679 0.04104631 0.053056061 109 14 163
0.024428202 0.041106179 0.051056087 109 14 163
0.025293421 0.041106179 0.051056087 109 14 163
0.02615864 0.041106179 0.051056087 109 14 163
-0.021311695 0.041876711 0.054056048 109 14 163
-0.020339532 0.041782022 0.057056069 109 14 163
-0.018594589 0.041750461 0.058056056 109 14 163
-0.017708359 0.0417189 0.059056044 109 14 163
-0.016856151 0.0417189 0.059056044 109 14 163
-0.015124221 0.041687336 0.06005609 109 14 163
-0.01424775 0.041655771 0.061056077 109 14 163
-0.013398794 0.041655771 0.061056077 109 14 163
-0.012527201 0.041624211 0.062056065 109 14 163
-0.010832543 0.041624211 0.062056065 109 14 163
-0.0099852141 0.041624211 0.062056065 109 14 163
-0.0091217533 0.04159265 0.063056052 109 14 163
-0.0082760509 0.04159265 0.063056052 109 14 163
-0.006573393 0.041561086 0.064056039 109 14 163
-0.0057293167 0.041561086 0.064056039 109 14 163
-0.0048852405 0.041561086 0.064056039 109 14 163
-0.0031923407 0.041529521 0.065056086 109 14 163
-0.0023498908 0.041529521 0.065056086 109 14 163
-0.0015074408 0.041529521 0.065056086 109 14 163
-0.00066499092 0.041529521 0.065056086 109 14 163
0.0010199089 0.041529521 0.065056086 109 14 163
0.0018623588 0.041529521 0.065056086 109 14 163
0.002704809 0.041529521 0.065056086 109 14 163
0.0043897089 0.041529521 0.065056086 109 14 163
0.005232159 0.041529521 0.065056086 109 14 163
0.0060877511 0.041561086 0.064056039 109 14 163
0.0069318274 0.041561086 0.064056039 109 14 163
0.00861998 0.041561086 0.064056039 109 14 163
0.0094640562 0.041561086 0.064056039 109 14 163
0.010308133 0.041561086 0.064056039 109 14 163
0.012020812 0.04159265 0.063056052 109 14 163
0.012866515 0.04159265 0.063056052 109 14 163
0.013712218 0.04159265 0.063056052 109 14 163
0.01455792 0.04159265 0.063056052 109 14 163
0.016281985 0.041624211 0.062056065 109 14 163
0.017129313 0.041624211 0.062056065 109 14 163
0.019906286 0.04181359 0.056056082 109 14 163
0.020804165 0.04184515 0.055056095 109 14 163
0.021705294 0.041876711 0.054056048 109 14 163
-0.020376807 0.042670675 0.056056082 109 14 163
-0.018594589 0.042604294 0.058056056 109 14 163
-0.017708359 0.042571105 0.059056044 109 14 163
-0.016856151 0.042571105 0.059056044 109 14 163
-0.015124221 0.04253792 0.06005609 109 14 163
-0.01424775 0.042504728 0.061056077 109 14 163
-0.013398794 0.042504728 0.061056077 109 14 163
-0.012527201 0.042471539 0.062056065 109 14 163
-0.010832543 0.042471539 0.062056065 109 14 163
-0.0099674566 0.042438351 0.063056052 109 14 163
-0.0091217533 0.042438351 0.063056052 109 14 163
-0.0082760509 0.042438351 0.063056052 109 14 163
-0.006573393 0.042405162 0.064056039 109 14 163
-0.0057293167 0.042405162 0.064056039 109 14 163
-0.0048852405 0.042405162 0.064056039 109 14 163
-0.0031923407 0.042371973 0.065056086 109 14 163
-0.0023498908 0.042371973 0.065056086 109 14 163
-0.0015074408 0.042371973 0.065056086 109 14 163
-0.00066499086 0.042371973 0.065056086 109 14 163
0.001019909 0.042371973 0.065056086 109 14 163
0.0018623588 0.042371973 0.065056086 109 14 163
0.002704809 0.042371973 0.065056086 109 14 163
0.0043897089 0.042371973 0.065056086 109 14 163
0.005232159 0.042371973 0.065056086 109 14 163
0.0060746092 0.042371973 0.065056086 109 14 163
0.0069170585 0.042371973 0.065056086 109 14 163
0.00861998 0.042405162 0.064056039 109 14 163
0.0094640562 0.042405162 0.064056039 109 14 163
0.010308133 0.042405162 0.064056039 109 14 163
0.011996285 0.042405162 0.064056039 109 14 163
0.012840361 0.042405162 0.064056039 109 14 163
0.013712218 0.042438351 0.063056052 109 14 163
0.01455792 0.042438351 0.063056052 109 14 163
0.016249325 0.042438354 0.063056052 109 14 163
0.017095029 0.042438354 0.063056052 109 14 163
0.022653721 0.042803429 0.052056074 109 14 163
0.024428202 0.042836621 0.051056087 109 14 163
0.025293421 0.042836621 0.051056087 109 14 163
0.02615864 0.042836621 0.051056087 109 14 163
0.027942877 0.042869806 0.05005604 109 14 163
-0.01862861 0.043492943 0.057056069 109 14 163
-0.017708359 0.043423314 0.059056044 109 14 163
-0.016856151 0.043423314 0.059056044 109 14 163
-0.015124221 0.043388501 0.06005609 109 14 163
-0.01427364 0.043388501 0.06005609 109 14 163
-0.013398794 0.043353684 0.061056077 109 14 163
-0.012549839 0.043353684 0.061056077 109 14 163
-0.010851928 0.043353684 0.061056077 109 14 163
0.024428202 0.043701839 0.051056087 109 14 163
0.025293421 0.043701839 0.051056087 109 14 163
0.02615864 0.043701839 0.051056087 109 14 163
-0.0099852141 0.0441662 0.062056065 109 14 163
-0.0091217533 0.044129759 0.063056052 109 14 163
-0.0082760509 0.044129759 0.063056052 109 14 163
-0.006573393 0.044093315 0.064056039 109 14 163
-0.0057293167 0.044093315 0.064056039 109 14 163
-0.0048772404 0.044056874 0.065056086 109 14 163
-0.0031923405 0.044056874 0.065056086 109 14 163
-0.0023498908 0.044056874 0.065056086 109 14 163
-0.0015074408 0.044056874 0.065056086 109 14 163
-0.00066499074 0.044056874 0.065056086 109 14 163
0.0010199092 0.044056874 0.065056086 109 14 163
0.001862359 0.044056874 0.065056086 109 14 163
0.0027048092 0.044056874 0.065056086 109 14 163
0.0043897089 0.044056874 0.065056086 109 14 163
0.005232159 0.044056874 0.065056086 109 14 163
0.0060746092 0.044056874 0.065056086 109 14 163
0.0069170585 0.044056874 0.065056086 109 14 163
0.0086019579 0.044056874 0.065056086 109 14 163
0.0094444081 0.044056874 0.065056086 109 14 163
0.010308133 0.044093315 0.064056039 109 14 163
0.011996285 0.044093315 0.064056039 109 14 163
0.012840361 0.044093315 0.064056039 109 14 163
0.013684438 0.044093315 0.064056039 109 14 163
0.014528515 0.044093315 0.064056039 109 14 163
0.016249325 0.044129759 0.063056052 109 14 163
0.017095029 0.044129759 0.063056052 109 14 163
0.025293421 0.044567056 0.051056087 109 14 163
-0.017708359 0.045127731 0.059056044 109 14 163
-0.016856151 0.045127731 0.059056044 109 14 163
-0.015124221 0.045089662 0.06005609 109 14 163
-0.01427364 0.045089662 0.06005609 109 14 163
-0.013398794 0.045051597 0.061056077 109 14 163
-0.012549839 0.045051597 0.061056077 109 14 163
-0.010832543 0.045013525 0.062056065 109 14 163
-0.0099852141 0.045013525 0.062056065 109 14 163
-0.0091217533 0.04497546 0.063056052 109 14 163
-0.0082760509 0.04497546 0.063056052 109 14 163
-0.006573393 0.044937391 0.064056039 109 14 163
-0.0057293158 0.044937391 0.064056039 109 14 163
-0.0048772404 0.044899322 0.065056086 109 14 163
-0.0031923405 0.044899322 0.065056086 109 14 163
-0.0023498908 0.044899322 0.065056086 109 14 163
-0.0015074407 0.044899322 0.065056086 109 14 163
-0.00066499074 0.044899322 0.065056086 109 14 163
0.0010199092 0.044899322 0.065056086 109 14 163
0.001862359 0.044899322 0.065056086 109 14 163
0.0027048092 0.044899322 0.065056086 109 14 163
0.0043897089 0.044899322 0.065056086 109 14 163
0.005232159 0.044899322 0.065056086 109 14 163
0.0060746092 0.044899322 0.065056086 109 14 163
0.0069170594 0.044899322 0.065056086 109 14 163
0.0086019579 0.044899322 0.065056086 109 14 163
0.0094444081 0.044899322 0.065056086 109 14 163
0.010286858 0.044899322 0.065056086 109 14 163
0.011971759 0.044899322 0.065056086 109 14 163
0.012840361 0.044937391 0.064056039 109 14 163
0.013684438 0.044937391 0.064056039 109 14 163
0.014528515 0.044937391 0.064056039 109 14 163
0.016216667 0.044937395 0.064056039 109 14 163
0.017060744 0.044937395 0.064056039 109 14 163
-0.016856151 0.045979939 0.059056044 109 14 163
-0.015124221 0.045940243 0.06005609 109 14 163
-0.01427364 0.045940243 0.06005609 109 14 163
-0.013398794 0.04590055 0.061056077 109 14 163
-0.012549839 0.04590055 0.061056077 109 14 163
-0.010832543 0.045860857 0.062056065 109 14 163
-0.0099852141 0.045860857 0.062056065 109 14 163
-0.0091217533 0.04582116 0.063056052 109 14 163
-0.0082760509 0.04582116 0.063056052 109 14 163
-0.006573393 0.045781467 0.064056039 109 14 163
-0.0057293158 0.045781467 0.064056039 109 14 163
-0.0048772404 0.045741774 0.065056086 109 14 163
-0.0031923405 0.045741774 0.065056086 109 14 163
-0.0023498905 0.045741774 0.065056086 109 14 163
-0.0015074406 0.045741774 0.065056086 109 14 163
-0.00066499069 0.045741774 0.065056086 109 14 163
0.0010199093 0.045741774 0.065056086 109 14 163
0.0018573483 0.045702077 0.066056073 109 14 163
0.0026981721 0.045702077 0.066056073 109 14 163
0.0043798191 0.045702077 0.066056073 109 14 163
0.0052206432 0.045702077 0.066056073 109 14 163
0.0060746092 0.045741774 0.065056086 109 14 163
0.0069170594 0.045741774 0.065056086 109 14 163
0.0086019579 0.045741774 0.065056086 109 14 163
0.0094444081 0.045741774 0.065056086 109 14 163
0.010286858 0.045741774 0.065056086 109 14 163
0.011971759 0.045741774 0.065056086 109 14 163
0.012814208 0.045741774 0.065056086 109 14 163
0.013656658 0.045741774 0.065056086 109 14 163
0.014528515 0.045781467 0.064056039 109 14 163
0.016216667 0.045781471 0.064056039 109 14 163
-0.015151737 0.046832148 0.059056044 109 14 163
-0.01427364 0.046790827 0.06005609 109 14 163
-0.013398794 0.046749506 0.061056077 109 14 163
-0.012549839 0.046749506 0.061056077 109 14 163
-0.010832543 0.046708185 0.062056065 109 14 163
-0.0099852141 0.046708185 0.062056065 109 14 163
-0.0091217533 0.046666868 0.063056052 109 14 163
-0.0082760509 0.046666868 0.063056052 109 14 163
-0.006573393 0.046625547 0.064056039 109 14 163
-0.0057293158 0.046625547 0.064056039 109 14 163
-0.0048852395 0.046625547 0.064056039 109 14 163
-0.0031970879 0.046625547 0.064056039 109 14 163
-0.0023530114 0.046625547 0.064056039 109 14 163
0.014528515 0.046625547 0.064056039 109 14 163
-0.015151737 0.047684357 0.059056044 109 14 163
-0.0015074406 0.047426671 0.065056086 109 14 163
-0.00066499057 0.047426671 0.065056086 109 14 163
0.0010165247 0.047383726 0.066056073 109 14 163
0.0018573485 0.047383726 0.066056073 109 14 163
0.0026981723 0.047383726 0.066056073 109 14 163
0.0043798191 0.047383726 0.066056073 109 14 163
0.0052206432 0.047383726 0.066056073 109 14 163
0.0060614664 0.047383726 0.066056073 109 14 163
0.0069022905 0.047383726 0.066056073 109 14 163
0.0086019579 0.047426671 0.065056086 109 14 163
0.0094444081 0.047426671 0.065056086 109 14 163
0.010286858 0.047426671 0.065056086 109 14 163
0.011971759 0.047426671 0.065056086 109 14 163
0.012814208 0.047426671 0.065056086 109 14 163
0.013656658 0.047426671 0.065056086 109 14 163
0.019788794 0.047684357 0.059056044 109 14 163
0.020681793 0.047727302 0.058056056 109 14 163
0.026006993 0.04789909 0.054056048 109 14 163
0.027835276 0.047984987 0.052056074 109 14 163
0.028698867 0.047984987 0.052056074 109 14 163
-0.01427364 0.048491992 0.06005609 109 14 163
-0.013398794 0.048447415 0.061056077 109 14 163
-0.012549839 0.048447415 0.061056077 109 14 163
-0.010832543 0.048402842 0.062056065 109 14 163
-0.0099852141 0.048402842 0.062056065 109 14 163
-0.0091217533 0.048358269 0.063056052 109 14 163
-0.0082760509 0.048358269 0.063056052 109 14 163
-0.006573393 0.0483137 0.064056039 109 14 163
-0.0057293158 0.0483137 0.064056039 109 14 163
-0.0048852395 0.0483137 0.064056039 109 14 163
-0.0031923403 0.048269123 0.065056086 109 14 163
-0.0023498903 0.048269123 0.065056086 109 14 163
-0.0015074405 0.048269123 0.065056086 109 14 163
-0.00066512229 0.048224553 0.066056073 109 14 163
0.0010165249 0.048224553 0.066056073 109 14 163
0.0018573485 0.048224553 0.066056073 109 14 163
0.0026981723 0.048224553 0.066056073 109 14 163
0.0043798191 0.048224553 0.066056073 109 14 163
0.0052206432 0.048224553 0.066056073 109 14 163
0.0060614664 0.048224553 0.066056073 109 14 163
0.0069022905 0.048224553 0.066056073 109 14 163
0.0085839368 0.048224553 0.066056073 109 14 163
0.00942476 0.048224553 0.066056073 109 14 163
0.010265584 0.048224553 0.066056073 109 14 163
0.011971759 0.048269123 0.065056086 109 14 163
0.012814208 0.048269123 0.065056086 109 14 163
0.013656658 0.048269123 0.065056086 109 14 163
0.014499108 0.048269123 0.065056086 109 14 163
-0.014273639 0.049342573 0.06005609 109 14 163
-0.013423056 0.049342573 0.06005609 109 14 163
-0.012549838 0.049296372 0.061056077 109 14 163
-0.010851927 0.049296372 0.061056077 109 14 163
-0.0099852132 0.049250171 0.062056065 109 14 163
-0.0091378847 0.049250171 0.062056065 109 14 163
-0.0082760509 0.049203973 0.063056052 109 14 163
-0.0065846452 0.049203973 0.063056052 109 14 163
-0.0057293158 0.049157776 0.064056039 109 14 163
-0.0048852395 0.049157776 0.064056039 109 14 163
-0.0031923403 0.049111575 0.065056086 109 14 163
-0.0023498903 0.049111575 0.065056086 109 14 163
-0.0015074403 0.049111575 0.065056086 109 14 163
-0.00066512229 0.049065374 0.066056073 109 14 163
0.0010165249 0.049065374 0.066056073 109 14 163
0.0018573485 0.049065374 0.066056073 109 14 163
0.0026981723 0.049065374 0.066056073 109 14 163
0.0043798191 0.049065374 0.066056073 109 14 163
0.0052206432 0.049065374 0.066056073 109 14 163
0.0060614664 0.049065374 0.066056073 109 14 163
0.0069022905 0.049065374 0.066056073 109 14 163
0.0085839378 0.049065374 0.066056073 109 14 163
0.0094247609 0.049065374 0.066056073 109 14 163
0.010265585 0.049065374 0.066056073 109 14 163
0.011947232 0.049065374 0.066056073 109 14 163
0.012788055 0.049065374 0.066056073 109 14 163
0.01362888 0.049065374 0.066056073 109 14 163
0.014499109 0.049111575 0.065056086 109 14 163
0.016184008 0.049111575 0.065056086 109 14 163
0.017026458 0.049111575 0.065056086 109 14 163
0.018012555 0.049296372 0.061056077 109 14 163
0.01974963 0.049342573 0.06005609 109 14 163
0.020641003 0.049388774 0.059056044 109 14 163
0.021578044 0.049481172 0.057056069 109 14 163
0.024804197 0.049296372 0.061056077 109 14 163
0.025653154 0.049296372 0.061056077 109 14 163
0.027351065 0.049296372 0.061056077 109 14 163
0.028200019 0.049296372 0.061056077 109 14 163
0.029048976 0.049296372 0.061056077 109 14 163
-0.013423056 0.050193153 0.06005609 109 14 163
-0.012549838 0.050145328 0.061056077 109 14 163
-0.010851927 0.050145328 0.061056077 109 14 163
-0.0099852132 0.050097503 0.062056065 109 14 163
-0.0091378847 0.050097503 0.062056065 109 14 163
-0.0082760509 0.050049677 0.063056052 109 14 163
-0.0065846452 0.050049677 0.063056052 109 14 163
-0.0057293158 0.050001852 0.064056039 109 14 163
-0.0048852395 0.050001852 0.064056039 109 14 163
-0.0031923403 0.049954023 0.065056086 109 14 163
-0.0023498903 0.049954023 0.065056086 109 14 163
-0.0015074403 0.049954023 0.065056086 109 14 163
-0.00066512224 0.049906198 0.066056073 109 14 163
0.001016525 0.049906198 0.066056073 109 14 163
0.0018573485 0.049906198 0.066056073 109 14 163
0.0026981723 0.049906198 0.066056073 109 14 163
0.0043798191 0.049906198 0.066056073 109 14 163
0.0052206432 0.049906198 0.066056073 109 14 163
0.0060614664 0.049906198 0.066056073 109 14 163
0.0069022905 0.049906198 0.066056073 109 14 163
0.0085839378 0.049906198 0.066056073 109 14 163
0.0094247609 0.049906198 0.066056073 109 14 163
0.010265585 0.049906198 0.066056073 109 14 163
0.011947232 0.049906198 0.066056073 109 14 163
0.012788055 0.049906198 0.066056073 109 14 163
0.01362888 0.049906198 0.066056073 109 14 163
0.014469703 0.049906198 0.066056073 109 14 163
0.01615135 0.049906202 0.066056073 109 14 163
0.017026458 0.049954027 0.065056086 109 14 163
0.017976644 0.050097503 0.062056065 109 14 163
0.01974963 0.050193153 0.06005609 109 14 163
0.020600211 0.050193153 0.06005609 109 14 163
0.021450793 0.050193153 0.06005609 109 14 163
0.022345418 0.050240982 0.059056044 109 14 163
0.024002539 0.050193153 0.06005609 109 14 163
0.024804197 0.050145328 0.061056077 109 14 163
0.025653154 0.050145328 0.061056077 109 14 163
0.02729726 0.050097503 0.062056065 109 14 163
0.028144591 0.050097503 0.062056065 109 14 163
0.028991919 0.050097503 0.062056065 109 14 163
0.029839247 0.050097503 0.062056065 109 14 163
-0.01344732 0.051093191 0.059056044 109 14 163
-0.012572475 0.051043734 0.06005609 109 14 163
-0.010851927 0.050994284 0.061056077 109 14 163
-0.010002972 0.050994284 0.061056077 109 14 163
-0.0091378847 0.05179216 0.062056065 109 14 163
-0.0082760509 0.051741082 0.063056052 109 14 163
-0.0065846452 0.051741082 0.063056052 109 14 163
-0.0057293158 0.051690005 0.064056039 109 14 163
-0.0048852395 0.051690005 0.064056039 109 14 163
-0.00319234 0.051638924 0.065056086 109 14 163
-0.0023498903 0.051638924 0.065056086 109 14 163
-0.0015074403 0.051638924 0.065056086 109 14 163
-0.00066512212 0.051587846 0.066056073 109 14 163
0.0010165251 0.051587846 0.066056073 109 14 163
0.0018573487 0.051587846 0.066056073 109 14 163
0.0026981726 0.051587846 0.066056073 109 14 163
0.0043798191 0.051587846 0.066056073 109 14 163
0.0052206432 0.051587846 0.066056073 109 14 163
0.0060483236 0.051536769 0.06705606 109 14 163
0.0068875216 0.051536769 0.06705606 109 14 163
0.0085659157 0.051536769 0.06705606 109 14 163
0.0094051128 0.051536769 0.06705606 109 14 163
0.010265585 0.051587846 0.066056073 109 14 163
0.011947232 0.051587846 0.066056073 109 14 163
0.012788055 0.051587846 0.066056073 109 14 163
0.01362888 0.051587846 0.066056073 109 14 163
0.014469703 0.051587846 0.066056073 109 14 163
0.01615135 0.05158785 0.066056073 109 14 163
0.017026458 0.051638924 0.065056086 109 14 163
0.017976644 0.05179216 0.062056065 109 14 163
0.0196713 0.05179216 0.062056065 109 14 163
0.020477839 0.051741086 0.063056052 109 14 163
0.021323543 0.051741086 0.063056052 109 14 163
0.022213288 0.05179216 0.062056065 109 14 163
0.023907946 0.05179216 0.062056065 109 14 163
0.024755275 0.05179216 0.062056065 109 14 163
0.025602605 0.05179216 0.062056065 109 14 163
0.02729726 0.05179216 0.062056065 109 14 163
0.028144591 0.05179216 0.062056065 109 14 163
0.028991919 0.05179216 0.062056065 109 14 163
0.029839247 0.05179216 0.062056065 109 14 163
0.031533904 0.05179216 0.062056065 109 14 163
-0.012572475 0.052744899 0.06005609 109 14 163
-0.010851927 0.052692197 0.061056077 109 14 163
-0.0099852132 0.052639488 0.062056065 109 14 163
-0.0091378847 0.052639488 0.062056065 109 14 163
-0.00827605 0.052586786 0.063056052 109 14 163
-0.0065846443 0.052586786 0.063056052 109 14 163
-0.0057293158 0.052534081 0.064056039 109 14 163
-0.0048852395 0.052534081 0.064056039 109 14 163
-0.0031970874 0.052534081 0.064056039 109 14 163
-0.0023498903 0.052481376 0.065056086 109 14 163
-0.0015074402 0.052481376 0.065056086 109 14 163
-0.00066512206 0.05242867 0.066056073 109 14 163
0.0010165251 0.05242867 0.066056073 109 14 163
0.0018573487 0.05242867 0.066056073 109 14 163
0.0026981726 0.05242867 0.066056073 109 14 163
0.0043798191 0.05242867 0.066056073 109 14 163
0.0052091265 0.052375965 0.06705606 109 14 163
0.0060483236 0.052375965 0.06705606 109 14 163
0.0068875216 0.052375965 0.06705606 109 14 163
0.0085659157 0.052375965 0.06705606 109 14 163
0.0094051128 0.052375965 0.06705606 109 14 163
0.01024431 0.052375965 0.06705606 109 14 163
0.011922705 0.052375965 0.06705606 109 14 163
0.012761902 0.052375965 0.06705606 109 14 163
0.013601099 0.052375965 0.06705606 109 14 163
0.014469703 0.05242867 0.066056073 109 14 163
0.01615135 0.05242867 0.066056073 109 14 163
0.016992172 0.05242867 0.066056073 109 14 163
0.017868908 0.052481376 0.065056086 109 14 163
0.019632136 0.052586786 0.063056052 109 14 163
0.020518631 0.052639492 0.062056065 109 14 163
0.021408375 0.052692197 0.061056077 109 14 163
0.022257332 0.052692197 0.061056077 109 14 163
0.023955243 0.052692197 0.061056077 109 14 163
0.024755275 0.052639492 0.062056065 109 14 163
0.025602605 0.052639492 0.062056065 109 14 163
0.02729726 0.052639492 0.062056065 109 14 163
0.028144591 0.052639492 0.062056065 109 14 163
0.028991919 0.052639492 0.062056065 109 14 163
0.029780569 0.052586786 0.063056052 109 14 163
0.031471971 0.052586786 0.063056052 109 14 163
-0.010871312 0.053595483 0.06005609 109 14 163
-0.010002972 0.053541154 0.061056077 109 14 163
-0.0091378847 0.053486817 0.062056065 109 14 163
-0.0082905553 0.053486817 0.062056065 109 14 163
-0.0065846443 0.053432487 0.063056052 109 14 163
-0.005738942 0.053432487 0.063056052 109 14 163
-0.0048852395 0.053378157 0.064056039 109 14 163
-0.0031970874 0.053378157 0.064056039 109 14 163
-0.0023498903 0.053323824 0.065056086 109 14 163
-0.0015074401 0.053323824 0.065056086 109 14 163
-0.00066499022 0.053323824 0.065056086 109 14 163
0.0010165251 0.053269491 0.066056073 109 14 163
0.0018573487 0.053269491 0.066056073 109 14 163
0.0026981726 0.053269491 0.066056073 109 14 163
0.0043699294 0.053215161 0.06705606 109 14 163
0.0052091274 0.053215161 0.06705606 109 14 163
0.0060483245 0.053215161 0.06705606 109 14 163
0.0068875216 0.053215161 0.06705606 109 14 163
0.0085659157 0.053215161 0.06705606 109 14 163
0.0094051128 0.053215161 0.06705606 109 14 163
0.01024431 0.053215161 0.06705606 109 14 163
0.011922705 0.053215161 0.06705606 109 14 163
0.012761902 0.053215161 0.06705606 109 14 163
0.013601099 0.053215161 0.06705606 109 14 163
0.014440297 0.053215161 0.06705606 109 14 163
0.01611869 0.053215161 0.06705606 109 14 163
0.016992172 0.053269494 0.066056073 109 14 163
0.017832996 0.053269494 0.066056073 109 14 163
0.019553808 0.053323828 0.065056086 109 14 163
0.020437049 0.053378157 0.064056039 109 14 163
0.021323543 0.053432487 0.063056052 109 14 163
0.022169245 0.053432487 0.063056052 109 14 163
0.023907946 0.053486817 0.062056065 109 14 163
0.024755275 0.053486817 0.062056065 109 14 163
0.025602605 0.053486817 0.062056065 109 14 163
0.027243461 0.053432487 0.063056052 109 14 163
0.028089164 0.053432487 0.063056052 109 14 163
0.028934866 0.053432487 0.063056052 109 14 163
0.029780569 0.053432487 0.063056052 109 14 163
0.031471971 0.053432487 0.063056052 109 14 163
-0.010002972 0.054390106 0.061056077 109 14 163
-0.0091378847 0.054334149 0.062056065 109 14 163
-0.0082905553 0.054334149 0.062056065 109 14 163
-0.0065846443 0.054278187 0.063056052 109 14 163
-0.005738942 0.054278187 0.063056052 109 14 163
-0.0048852395 0.054222234 0.064056039 109 14 163
-0.0031970874 0.054222234 0.064056039 109 14 163
-0.0023530109 0.054222234 0.064056039 109 14 163
-0.0015089347 0.054222234 0.064056039 109 14 163
0.023813354 0.054222234 0.064056039 109 14 163
0.024706353 0.054278191 0.063056052 109 14 163
0.025552057 0.054278191 0.063056052 109 14 163
0.027243461 0.054278191 0.063056052 109 14 163
0.028089164 0.054278191 0.063056052 109 14 163
0.028934866 0.054278191 0.063056052 109 14 163
0.029780569 0.054278191 0.063056052 109 14 163
0.031471971 0.054278191 0.063056052 109 14 163
-0.0006649901 0.055008724 0.065056086 109 14 163
0.0010165252 0.054951139 0.066056073 109 14 163
0.001857349 0.054951139 0.066056073 109 14 163
0.0026981728 0.054951139 0.066056073 109 14 163
0.0043699294 0.054893553 0.06705606 109 14 163
0.0052091274 0.054893553 0.06705606 109 14 163
0.0060483245 0.054893553 0.06705606 109 14 163
0.0068875216 0.054893553 0.06705606 109 14 163
0.0085659157 0.054893553 0.06705606 109 14 163
0.0094051128 0.054893553 0.06705606 109 14 163
0.01024431 0.054893553 0.06705606 109 14 163
0.011922705 0.054893553 0.06705606 109 14 163
0.012761902 0.054893553 0.06705606 109 14 163
0.013601099 0.054893553 0.06705606 109 14 163
0.014440297 0.054893553 0.06705606 109 14 163
0.01611869 0.054893557 0.06705606 109 14 163
0.016957888 0.054893557 0.06705606 109 14 163
0.017832996 0.054951143 0.066056073 109 14 163
0.019514645 0.054951143 0.066056073 109 14 163
0.020396259 0.055008724 0.065056086 109 14 163
0.021238709 0.055008724 0.065056086 109 14 163
0.022081159 0.055008724 0.065056086 109 14 163
-0.010002972 0.056088015 0.061056077 109 14 163
-0.0091378847 0.056028806 0.062056065 109 14 163
-0.0082905553 0.056028806 0.062056065 109 14 163
-0.0065846443 0.055969596 0.063056052 109 14 163
-0.005738942 0.055969596 0.063056052 109 14 163
-0.0048852395 0.055910386 0.064056039 109 14 163
-0.0031970872 0.055910386 0.064056039 109 14 163
-0.0023498898 0.055851173 0.065056086 109 14 163
-0.0015074401 0.055851173 0.065056086 109 14 163
-0.00066499005 0.055851173 0.065056086 109 14 163
0.0010165253 0.055791967 0.066056073 109 14 163
0.001857349 0.055791967 0.066056073 109 14 163
0.0026981728 0.055791967 0.066056073 109 14 163
0.0043699294 0.055732749 0.06705606 109 14 163
0.0052091274 0.055732749 0.06705606 109 14 163
0.0060483245 0.055732749 0.06705606 109 14 163
0.0068875216 0.055732749 0.06705606 109 14 163
0.0085659157 0.055732749 0.06705606 109 14 163
0.0094051128 0.055732749 0.06705606 109 14 163
0.01024431 0.055732749 0.06705606 109 14 163
0.011922705 0.055732749 0.06705606 109 14 163
0.012761902 0.055732749 0.06705606 109 14 163
0.013601099 0.055732749 0.06705606 109 14 163
0.014440297 0.055732749 0.06705606 109 14 163
0.01611869 0.055732753 0.06705606 109 14 163
0.016957888 0.055732753 0.06705606 109 14 163
0.017797085 0.055732753 0.06705606 109 14 163
0.019514645 0.055791967 0.066056073 109 14 163
0.020355469 0.055791967 0.066056073 109 14 163
0.021238709 0.055851176 0.065056086 109 14 163
0.022081159 0.055851176 0.065056086 109 14 163
0.023813354 0.055910386 0.064056039 109 14 163
0.02465743 0.055910386 0.064056039 109 14 163
0.025501506 0.055910386 0.064056039 109 14 163
0.027243461 0.055969596 0.063056052 109 14 163
0.028089164 0.055969596 0.063056052 109 14 163
0.028934866 0.055969596 0.063056052 109 14 163
0.029721888 0.055910386 0.064056039 109 14 163
0.031471971 0.055969596 0.063056052 109 14 163
-0.010020729 0.056997806 0.06005609 109 14 163
-0.0091378847 0.05687613 0.062056065 109 14 163
-0.0082905553 0.05687613 0.062056065 109 14 163
-0.0065846443 0.056815296 0.063056052 109 14 163
-0.005738942 0.056815296 0.063056052 109 14 163
-0.0048852395 0.056754459 0.064056039 109 14 163
-0.0031970872 0.056754459 0.064056039 109 14 163
-0.0023498898 0.056693621 0.065056086 109 14 163
-0.00150744 0.056693621 0.065056086 109 14 163
-0.00066499005 0.056693621 0.065056086 109 14 163
0.0010165253 0.056632787 0.066056073 109 14 163
0.001857349 0.056632787 0.066056073 109 14 163
0.0026981728 0.056632787 0.066056073 109 14 163
0.0043699294 0.056571946 0.06705606 109 14 163
0.0052091274 0.056571946 0.06705606 109 14 163
0.0060483245 0.056571946 0.06705606 109 14 163
0.0068875216 0.056571946 0.06705606 109 14 163
0.0085478937 0.056511112 0.068056047 109 14 163
0.0093854647 0.056511112 0.068056047 109 14 163
0.010223036 0.056511112 0.068056047 109 14 163
0.011898178 0.056511112 0.068056047 109 14 163
0.012735749 0.056511112 0.068056047 109 14 163
0.01357332 0.056511112 0.068056047 109 14 163
0.014440297 0.056571946 0.06705606 109 14 163
0.01611869 0.056571946 0.06705606 109 14 163
0.016957888 0.056571946 0.06705606 109 14 163
0.017797085 0.056571946 0.06705606 109 14 163
0.019514645 0.056632787 0.066056073 109 14 163
0.020355469 0.056632787 0.066056073 109 14 163
0.021238709 0.056693621 0.065056086 109 14 163
0.022081159 0.056693621 0.065056086 109 14 163
0.023766058 0.056693621 0.065056086 109 14 163
0.02465743 0.056754459 0.064056039 109 14 163
0.025501506 0.056754459 0.064056039 109 14 163
0.027189659 0.056754459 0.064056039 109 14 163
0.028033735 0.056754459 0.064056039 109 14 163
0.028877812 0.056754459 0.064056039 109 14 163
0.029721888 0.056754459 0.064056039 109 14 163
0.031410038 0.056754462 0.064056039 109 14 163
0.032317679 0.0568153 0.063056052 109 14 163
-0.010020729 0.057848386 0.06005609 109 14 163
-0.0091378847 0.057723463 0.062056065 109 14 163
-0.0082905553 0.057723463 0.062056065 109 14 163
-0.0065846443 0.057661001 0.063056052 109 14 163
-0.005738942 0.057661001 0.063056052 109 14 163
-0.0048852395 0.057598535 0.064056039 109 14 163
-0.0031970872 0.057598535 0.064056039 109 14 163
-0.0023530107 0.057598535 0.064056039 109 14 163
-0.0015074399 0.057536073 0.065056086 109 14 163
-0.00066498999 0.057536073 0.065056086 109 14 163
0.0010165254 0.057473611 0.066056073 109 14 163
0.001857349 0.057473611 0.066056073 109 14 163
0.0026981728 0.057473611 0.066056073 109 14 163
0.021196291 0.057473611 0.066056073 109 14 163
0.022081159 0.057536073 0.065056086 109 14 163
0.023766058 0.057536073 0.065056086 109 14 163
0.024608508 0.057536073 0.065056086 109 14 163
0.025450958 0.057536073 0.065056086 109 14 163
0.027189659 0.057598535 0.064056039 109 14 163
0.028033735 0.057598535 0.064056039 109 14 163
0.028877812 0.057598535 0.064056039 109 14 163
0.029721888 0.057598535 0.064056039 109 14 163
0.031410038 0.057598539 0.064056039 109 14 163
0.032254115 0.057598539 0.064056039 109 14 163
0.03471791 0.057536077 0.065056086 109 14 163
0.035560358 0.057536077 0.065056086 109 14 163
0.036331117 0.057473615 0.066056073 109 14 163
-0.010020729 0.058698971 0.06005609 109 14 163
-0.0091701476 0.058698971 0.06005609 109 14 163
-0.0083050607 0.058634881 0.061056077 109 14 163
-0.0066071507 0.058634881 0.061056077 109 14 163
0.0043699294 0.058250342 0.06705606 109 14 163
0.0052091274 0.058250342 0.06705606 109 14 163
0.0060483245 0.058250342 0.06705606 109 14 163
0.0068727527 0.058186252 0.068056047 109 14 163
0.0085478937 0.058186252 0.068056047 109 14 163
0.0093854647 0.058186252 0.068056047 109 14 163
0.010223036 0.058186252 0.068056047 109 14 163
0.011898178 0.058186252 0.068056047 109 14 163
0.012735749 0.058186252 0.068056047 109 14 163
0.01357332 0.058186252 0.068056047 109 14 163
0.014410891 0.058186252 0.068056047 109 14 163
0.016086033 0.058186252 0.068056047 109 14 163
0.016957888 0.058250342 0.06705606 109 14 163
0.017797085 0.058250342 0.06705606 109 14 163
0.019475481 0.058250342 0.06705606 109 14 163
0.020314677 0.058250342 0.06705606 109 14 163
-0.005738942 0.059352405 0.063056052 109 14 163
-0.0048932396 0.059352405 0.063056052 109 14 163
-0.003197087 0.059286691 0.064056039 109 14 163
-0.0023530107 0.059286691 0.064056039 109 14 163
-0.0015074399 0.059220973 0.065056086 109 14 163
-0.00066498987 0.059220973 0.065056086 109 14 163
0.0010165254 0.059155256 0.066056073 109 14 163
0.0018573492 0.059155256 0.066056073 109 14 163
0.002698173 0.059155256 0.066056073 109 14 163
0.0043699294 0.059089538 0.06705606 109 14 163
0.0052091274 0.059089538 0.06705606 109 14 163
0.0060483245 0.059089538 0.06705606 109 14 163
0.0068727527 0.059023824 0.068056047 109 14 163
0.0085478937 0.059023824 0.068056047 109 14 163
0.0093854647 0.059023824 0.068056047 109 14 163
0.010223036 0.059023824 0.068056047 109 14 163
0.011898178 0.059023824 0.068056047 109 14 163
0.012735749 0.059023824 0.068056047 109 14 163
0.01357332 0.059023824 0.068056047 109 14 163
0.014410891 0.059023824 0.068056047 109 14 163
0.016086033 0.059023824 0.068056047 109 14 163
0.016923603 0.059023824 0.068056047 109 14 163
0.017797085 0.059089538 0.06705606 109 14 163
0.019475481 0.059089538 0.06705606 109 14 163
0.020314677 0.059089538 0.06705606 109 14 163
0.021196291 0.059155256 0.066056073 109 14 163
0.022037115 0.059155256 0.066056073 109 14 163
0.023766058 0.059220973 0.065056086 109 14 163
0.024608508 0.059220973 0.065056086 109 14 163
0.025450958 0.059220973 0.065056086 109 14 163
0.027135858 0.059220973 0.065056086 109 14 163
0.027978308 0.059220973 0.065056086 109 14 163
0.028820759 0.059220973 0.065056086 109 14 163
0.029663209 0.059220973 0.065056086 109 14 163
0.031348109 0.059220977 0.065056086 109 14 163
0.032190558 0.059220977 0.065056086 109 14 163
0.03303301 0.059220977 0.065056086 109 14 163
0.034649469 0.059155259 0.066056073 109 14 163
0.035490293 0.059155259 0.066056073 109 14 163
-0.0091701476 0.060400132 0.06005609 109 14 163
-0.0082905553 0.060265448 0.062056065 109 14 163
-0.0065958975 0.060265448 0.062056065 109 14 163
-0.005738942 0.060198106 0.063056052 109 14 163
-0.0048932396 0.060198106 0.063056052 109 14 163
-0.003197087 0.060130768 0.064056039 109 14 163
-0.0023530107 0.060130768 0.064056039 109 14 163
-0.0015074398 0.060063422 0.065056086 109 14 163
-0.00066498981 0.060063422 0.065056086 109 14 163
0.0010199101 0.060063422 0.065056086 109 14 163
0.0018573492 0.05999608 0.066056073 109 14 163
0.002698173 0.05999608 0.066056073 109 14 163
0.0043699294 0.059928738 0.06705606 109 14 163
0.0052091274 0.059928738 0.06705606 109 14 163
0.0060483245 0.059928738 0.06705606 109 14 163
0.0068727527 0.059861396 0.068056047 109 14 163
0.0085478937 0.059861396 0.068056047 109 14 163
0.0093854647 0.059861396 0.068056047 109 14 163
0.010223036 0.059861396 0.068056047 109 14 163
0.011898178 0.059861396 0.068056047 109 14 163
0.012735749 0.059861396 0.068056047 109 14 163
0.01357332 0.059861396 0.068056047 109 14 163
0.014410891 0.059861396 0.068056047 109 14 163
0.016086033 0.059861396 0.068056047 109 14 163
0.016923603 0.059861396 0.068056047 109 14 163
0.017761175 0.059861396 0.068056047 109 14 163
0.019475481 0.059928738 0.06705606 109 14 163
0.020314677 0.059928738 0.06705606 109 14 163
0.021196291 0.05999608 0.066056073 109 14 163
0.022037115 0.05999608 0.066056073 109 14 163
0.023718763 0.05999608 0.066056073 109 14 163
0.024559585 0.05999608 0.066056073 109 14 163
0.025450958 0.060063422 0.065056086 109 14 163
0.027135858 0.060063422 0.065056086 109 14 163
0.027978308 0.060063422 0.065056086 109 14 163
0.028820759 0.060063422 0.065056086 109 14 163
0.029604526 0.05999608 0.066056073 109 14 163
0.031286173 0.059996083 0.066056073 109 14 163
0.032126997 0.059996083 0.066056073 109 14 163
0.032967821 0.059996083 0.066056073 109 14 163
0.034649469 0.059996083 0.066056073 109 14 163
-0.0083050607 0.061181746 0.061056077 109 14 163
-0.0065958975 0.061112776 0.062056065 109 14 163
-0.005738942 0.06104381 0.063056052 109 14 163
-0.0048932387 0.06104381 0.063056052 109 14 163
-0.003197087 0.060974844 0.064056039 109 14 163
-0.0023530107 0.060974844 0.064056039 109 14 163
-0.0015074397 0.06090587 0.065056086 109 14 163
-0.00066498976 0.06090587 0.065056086 109 14 163
0.0010199101 0.06090587 0.065056086 109 14 163
0.0018573492 0.060836904 0.066056073 109 14 163
0.002698173 0.060836904 0.066056073 109 14 163
0.0043699304 0.060767934 0.06705606 109 14 163
0.0052091274 0.060767934 0.06705606 109 14 163
0.0060483245 0.060767934 0.06705606 109 14 163
0.0068727536 0.060698967 0.068056047 109 14 163
0.0085478937 0.060698967 0.068056047 109 14 163
0.0093854647 0.060698967 0.068056047 109 14 163
0.010223036 0.060698967 0.068056047 109 14 163
0.011898178 0.060698967 0.068056047 109 14 163
0.012735749 0.060698967 0.068056047 109 14 163
0.01357332 0.060698967 0.068056047 109 14 163
0.014410891 0.060698967 0.068056047 109 14 163
0.016086033 0.060698967 0.068056047 109 14 163
0.016923603 0.060698967 0.068056047 109 14 163
0.017761175 0.060698967 0.068056047 109 14 163
0.019436315 0.060698967 0.068056047 109 14 163
0.020314677 0.060767934 0.06705606 109 14 163
0.021153875 0.060767934 0.06705606 109 14 163
0.021993071 0.060767934 0.06705606 109 14 163
0.023718763 0.060836904 0.066056073 109 14 163
0.024559585 0.060836904 0.066056073 109 14 163
0.025400409 0.060836904 0.066056073 109 14 163
0.027082056 0.060836904 0.066056073 109 14 163
0.02792288 0.060836904 0.066056073 109 14 163
0.028763702 0.060836904 0.066056073 109 14 163
0.029604526 0.060836904 0.066056073 109 14 163
0.031286173 0.060836907 0.066056073 109 14 163
0.032126997 0.060836907 0.066056073 109 14 163
0.032967821 0.060836907 0.066056073 109 14 163
0.034581032 0.060767937 0.06705606 109 14 163
-0.0066184029 0.062101297 0.06005609 109 14 163
-0.0057485681 0.061960105 0.062056065 109 14 163
-0.0048932387 0.061889511 0.063056052 109 14 163
-0.0032018342 0.061889511 0.063056052 109 14 163
-0.0023530105 0.06181892 0.064056039 109 14 163
-0.0015089342 0.06181892 0.064056039 109 14 163
-0.00066485791 0.06181892 0.064056039 109 14 163
0.0010199102 0.06259077 0.065056086 109 14 163
0.0018573494 0.062518552 0.066056073 109 14 163
0.0026981733 0.062518552 0.066056073 109 14 163
0.0043699304 0.06244633 0.06705606 109 14 163
0.0052091274 0.06244633 0.06705606 109 14 163
0.0060483245 0.06244633 0.06705606 109 14 163
0.0068727536 0.062374108 0.068056047 109 14 163
0.0085478937 0.062374108 0.068056047 109 14 163
0.0093854647 0.062374108 0.068056047 109 14 163
0.010223036 0.062374108 0.068056047 109 14 163
0.011898178 0.062374108 0.068056047 109 14 163
0.012709595 0.062301889 0.069056094 109 14 163
0.01354554 0.062301889 0.069056094 109 14 163
0.014381485 0.062301889 0.069056094 109 14 163
0.016086033 0.062374108 0.068056047 109 14 163
0.016923603 0.062374108 0.068056047 109 14 163
0.017761175 0.062374108 0.068056047 109 14 163
0.019436315 0.062374108 0.068056047 109 14 163
0.020314677 0.06244633 0.06705606 109 14 163
0.021153875 0.06244633 0.06705606 109 14 163
0.021993071 0.06244633 0.06705606 109 14 163
0.023671467 0.06244633 0.06705606 109 14 163
0.024510663 0.06244633 0.06705606 109 14 163
0.025400409 0.062518552 0.066056073 109 14 163
0.027082056 0.062518552 0.066056073 109 14 163
0.02792288 0.062518552 0.066056073 109 14 163
0.028763702 0.062518552 0.066056073 109 14 163
0.029545847 0.06244633 0.06705606 109 14 163
0.031224243 0.062446333 0.06705606 109 14 163
0.032063439 0.062446333 0.06705606 109 14 163
0.032902636 0.062446333 0.06705606 109 14 163
0.034581032 0.062446333 0.06705606 109 14 163
0.035420228 0.062446333 0.06705606 109 14 163
0.036259428 0.062446333 0.06705606 109 14 163
-0.0057581943 0.063728616 0.061056077 109 14 163
-0.0048932387 0.063580915 0.063056052 109 14 163
-0.0032018339 0.063580915 0.063056052 109 14 163
-0.0023530102 0.063507073 0.064056039 109 14 163
-0.0015089342 0.063507073 0.064056039 109 14 163
-0.00066498964 0.063433222 0.065056086 109 14 163
0.0010199103 0.063433222 0.065056086 109 14 163
0.0018573494 0.06335938 0.066056073 109 14 163
0.0026981733 0.06335938 0.066056073 109 14 163
0.0043798201 0.06335938 0.066056073 109 14 163
0.0052091274 0.06328553 0.06705606 109 14 163
0.0060483245 0.06328553 0.06705606 109 14 163
0.0068727536 0.063211679 0.068056047 109 14 163
0.0085478937 0.063211679 0.068056047 109 14 163
0.0093854647 0.063211679 0.068056047 109 14 163
0.010201761 0.063137829 0.069056094 109 14 163
0.01187365 0.063137829 0.069056094 109 14 163
0.012709595 0.063137829 0.069056094 109 14 163
0.01354554 0.063137829 0.069056094 109 14 163
0.014381485 0.063137829 0.069056094 109 14 163
0.016053373 0.063137829 0.069056094 109 14 163
0.016923603 0.063211679 0.068056047 109 14 163
0.017761175 0.063211679 0.068056047 109 14 163
0.019436315 0.063211679 0.068056047 109 14 163
0.020273887 0.063211679 0.068056047 109 14 163
0.021111457 0.063211679 0.068056047 109 14 163
0.021993071 0.06328553 0.06705606 109 14 163
0.023671467 0.06328553 0.06705606 109 14 163
0.024510663 0.06328553 0.06705606 109 14 163
0.025349861 0.06328553 0.06705606 109 14 163
0.027028255 0.06328553 0.06705606 109 14 163
0.027867453 0.06328553 0.06705606 109 14 163
0.028706651 0.06328553 0.06705606 109 14 163
0.029545847 0.06328553 0.06705606 109 14 163
0.031224243 0.06328553 0.06705606 109 14 163
0.032063439 0.06328553 0.06705606 109 14 163
0.032902636 0.06328553 0.06705606 109 14 163
0.034581032 0.06328553 0.06705606 109 14 163
0.035420228 0.06328553 0.06705606 109 14 163
0.036259428 0.06328553 0.06705606 109 14 163
-0.0057870736 0.064803988 0.058056056 109 14 163
-0.0049012396 0.06450209 0.062056065 109 14 163
-0.0032018339 0.064426616 0.063056052 109 14 163
-0.0023561313 0.064426616 0.063056052 109 14 163
-0.0015089341 0.064351149 0.064056039 109 14 163
-0.00066485774 0.064351149 0.064056039 109 14 163
0.0010199103 0.064275667 0.065056086 109 14 163
0.0018623602 0.064275667 0.065056086 109 14 163
0.0026981733 0.0642002 0.066056073 109 14 163
0.0043798201 0.0642002 0.066056073 109 14 163
0.0052091274 0.064124718 0.06705606 109 14 163
0.0060483245 0.064124718 0.06705606 109 14 163
0.0068727536 0.064049251 0.068056047 109 14 163
0.0085478937 0.064049251 0.068056047 109 14 163
0.0093854647 0.064049251 0.068056047 109 14 163
0.010201761 0.063973777 0.069056094 109 14 163
0.01187365 0.063973777 0.069056094 109 14 163
0.012709595 0.063973777 0.069056094 109 14 163
0.01354554 0.063973777 0.069056094 109 14 163
0.014381485 0.063973777 0.069056094 109 14 163
0.016053373 0.063973777 0.069056094 109 14 163
0.016889317 0.063973777 0.069056094 109 14 163
0.017761175 0.064049251 0.068056047 109 14 163
0.019436315 0.064049251 0.068056047 109 14 163
0.020273887 0.064049251 0.068056047 109 14 163
0.021111457 0.064049251 0.068056047 109 14 163
0.021949029 0.064049251 0.068056047 109 14 163
0.023624171 0.064049251 0.068056047 109 14 163
0.024510663 0.064124718 0.06705606 109 14 163
0.025349861 0.064124718 0.06705606 109 14 163
0.027028255 0.064124718 0.06705606 109 14 163
0.027867453 0.064124718 0.06705606 109 14 163
0.028706651 0.064124718 0.06705606 109 14 163
0.029545847 0.064124718 0.06705606 109 14 163
0.031224243 0.064124726 0.06705606 109 14 163
0.032063439 0.064124726 0.06705606 109 14 163
0.032902636 0.064124726 0.06705606 109 14 163
0.034581032 0.064124726 0.06705606 109 14 163
0.035420228 0.064124726 0.06705606 109 14 163
0.036187734 0.064049259 0.068056047 109 14 163
0.038700446 0.064049259 0.068056047 109 14 163
0.039538018 0.064049259 0.068056047 109 14 163
-0.0049252389 0.065580726 0.059056044 109 14 163
-0.0032065811 0.065349422 0.062056065 109 14 163
-0.0023561311 0.065272324 0.063056052 109 14 163
-0.001508934 0.065195225 0.064056039 109 14 163
-0.00066485768 0.065195225 0.064056039 109 14 163
0.0010199103 0.065118119 0.065056086 109 14 163
0.0018623602 0.065118119 0.065056086 109 14 163
0.0026981733 0.065041021 0.066056073 109 14 163
0.0043798201 0.065041021 0.066056073 109 14 163
0.0052091274 0.064963922 0.06705606 109 14 163
0.0060483245 0.064963922 0.06705606 109 14 163
0.0068875225 0.064963922 0.06705606 109 14 163
0.027867453 0.064963922 0.06705606 109 14 163
0.028706651 0.064963922 0.06705606 109 14 163
0.029545847 0.064963922 0.06705606 109 14 163
0.031224243 0.064963922 0.06705606 109 14 163
0.032063439 0.064963922 0.06705606 109 14 163
0.032902636 0.064963922 0.06705606 109 14 163
0.034581032 0.064963922 0.06705606 109 14 163
