ply
format ascii 1.0
comment PCL generated
element vertex 1018
property float x
property float y
property float z
property uchar red
property uchar green
property uchar blue
element camera 1
property float view_px
property float view_py
property float view_pz
property float x_axisx
property float x_axisy
property float x_axisz
property float y_axisx
property float y_axisy
property float y_axisz
property float z_axisx
property float z_axisy
property float z_axisz
property float focal
property float scalex
property float scaley
property float centerx
property float centery
property int viewportx
property int viewporty
property float k1
property float k2
end_header
0.094917677 -0.19547357 0.37299997 252 129 200
0.094917677 -0.19724303 0.37299997 252 129 200
0.096687146 -0.19547357 0.37299997 252 129 200
0.096687146 -0.19724303 0.37299997 252 129 200
0.096687146 -0.19812778 0.37299997 252 129 200
0.096687146 -0.21759194 0.37299997 252 129 200
0.097571872 -0.19547357 0.37299997 252 129 200
0.097571872 -0.19724303 0.37299997 252 129 200
0.098456614 -0.19547357 0.37299997 252 129 200
0.098456614 -0.19724303 0.37299997 252 129 200
0.09934134 -0.19547357 0.37299997 252 129 200
0.10670125 -0.10529901 0.37199998 252 129 200
0.10670125 -0.10618538 0.37199998 252 129 200
0.10613721 -0.10692836 0.37399995 252 129 200
0.10670125 -0.1079581 0.37199998 252 129 200
0.10758761 -0.090230867 0.37199998 252 129 200
0.10730397 -0.091074817 0.37299997 252 129 200
0.10730397 -0.091959551 0.37299997 252 129 200
0.10758761 -0.10263993 0.37199998 252 129 200
0.10702031 -0.10339592 0.37399995 252 129 200
0.10702031 -0.10516214 0.37399995 252 129 200
0.10702031 -0.10604525 0.37399995 252 129 200
0.10673667 -0.10685667 0.37499994 252 129 200
0.10673667 -0.10773815 0.37499994 252 129 200
0.10907344 -0.089305349 0.37299997 252 129 200
0.10878653 -0.090149291 0.37399995 252 129 200
0.10878653 -0.091032401 0.37399995 252 129 200
0.10878653 -0.091915511 0.37399995 252 129 200
0.10849964 -0.093634427 0.37499994 252 129 200
0.10878653 -0.099863485 0.37399995 252 129 200
0.10849964 -0.10156778 0.37499994 252 129 200
0.10849964 -0.10244925 0.37499994 252 129 200
0.10821273 -0.10326555 0.37599999 252 129 200
0.10821273 -0.10502526 0.37599999 252 129 200
0.10821273 -0.10590512 0.37599999 252 129 200
0.10792584 -0.10671328 0.37699997 252 129 200
0.10792584 -0.10759151 0.37699997 252 129 200
0.1102467 -0.086685427 0.37199998 252 129 200
0.10966965 -0.087499961 0.37399995 252 129 200
0.10938112 -0.089227021 0.37499994 252 129 200
0.10938112 -0.090108499 0.37499994 252 129 200
0.10938112 -0.090989985 0.37499994 252 129 200
0.10938112 -0.091871463 0.37499994 252 129 200
0.10938112 -0.093634427 0.37499994 252 129 200
0.10880407 -0.097930983 0.37699997 252 129 200
0.10880407 -0.098809212 0.37699997 252 129 200
0.10880407 -0.099687442 0.37699997 252 129 200
0.10851554 -0.10138197 0.37799996 252 129 200
0.10851554 -0.10225858 0.37799996 252 129 200
0.10851554 -0.10313518 0.37799996 252 129 200
0.10851554 -0.10488838 0.37799996 252 129 200
0.10851554 -0.10576499 0.37799996 252 129 200
0.10851554 -0.10664159 0.37799996 252 129 200
0.10822701 -0.10744488 0.37899995 252 129 200
0.11084291 -0.082227468 0.37299997 252 129 200
0.11084291 -0.083112203 0.37299997 252 129 200
0.11113306 -0.084026337 0.37199998 252 129 200
0.11084291 -0.085766405 0.37299997 252 129 200
0.1102626 -0.086582571 0.37499994 252 129 200
0.10997245 -0.087428138 0.37599999 252 129 200
0.10997245 -0.089187853 0.37599999 252 129 200
0.10997245 -0.090067714 0.37599999 252 129 200
0.10997245 -0.090947568 0.37599999 252 129 200
0.10997245 -0.091827422 0.37599999 252 129 200
0.11084291 -0.21051407 0.37299997 252 129 200
0.11172763 -0.083112203 0.37299997 252 129 200
0.10997695 -0.097820133 0.37899995 252 129 200
0.10997695 -0.098695107 0.37899995 252 129 200
0.10997695 -0.099570081 0.37899995 252 129 200
0.10997695 -0.10132004 0.37899995 252 129 200
0.10997695 -0.10219502 0.37899995 252 129 200
0.10997695 -0.10306999 0.37899995 252 129 200
0.10997695 -0.10481995 0.37899995 252 129 200
0.10997695 -0.10569492 0.37899995 252 129 200
0.10997695 -0.1065699 0.37899995 252 129 200
0.10997695 -0.10744488 0.37899995 252 129 200
0.11173216 -0.083908722 0.37599999 252 129 200
0.11173216 -0.08566843 0.37599999 252 129 200
0.11173216 -0.086548284 0.37599999 252 129 200
0.11143876 -0.087392226 0.37699997 252 129 200
0.11143876 -0.089148685 0.37699997 252 129 200
0.11143876 -0.090026915 0.37699997 252 129 200
0.11143876 -0.090905145 0.37699997 252 129 200
0.11143876 -0.091783375 0.37699997 252 129 200
0.11055853 -0.097764701 0.38 252 129 200
0.11055853 -0.09863805 0.38 252 129 200
0.11055853 -0.0995114 0.38 252 129 200
0.11055853 -0.10125811 0.38 252 129 200
0.11055853 -0.10213146 0.38 252 129 200
0.11055853 -0.10300481 0.38 252 129 200
0.11055853 -0.10475151 0.38 252 129 200
0.11055853 -0.10562485 0.38 252 129 200
0.11055853 -0.10649821 0.38 252 129 200
0.11055853 -0.10737156 0.38 252 129 200
0.11026513 -0.10904169 0.38099998 252 129 200
0.11202195 -0.078590281 0.37799996 252 129 200
0.11202195 -0.079466887 0.37799996 252 129 200
0.11202195 -0.08122009 0.37799996 252 129 200
0.11202195 -0.082096696 0.37799996 252 129 200
0.11202195 -0.082973301 0.37799996 252 129 200
0.11202195 -0.083849907 0.37799996 252 129 200
0.11231699 -0.085635766 0.37699997 252 129 200
0.11231699 -0.086513996 0.37699997 252 129 200
0.11231699 -0.087392226 0.37699997 252 129 200
0.11202195 -0.089109525 0.37799996 252 129 200
0.11202195 -0.089986131 0.37799996 252 129 200
0.11202195 -0.090862736 0.37799996 252 129 200
0.11113686 -0.097709276 0.38099998 252 129 200
0.11113686 -0.098581001 0.38099998 252 129 200
0.11113686 -0.099452719 0.38099998 252 129 200
0.11113686 -0.10119617 0.38099998 252 129 200
0.11113686 -0.1020679 0.38099998 252 129 200
0.11113686 -0.10293962 0.38099998 252 129 200
0.11113686 -0.10468307 0.38099998 252 129 200
0.11113686 -0.10555479 0.38099998 252 129 200
0.11113686 -0.10642652 0.38099998 252 129 200
0.11113686 -0.10729824 0.38099998 252 129 200
0.11113686 -0.10904169 0.38099998 252 129 200
0.11261202 -0.16309577 0.37599999 252 129 200
0.11349187 -0.075990014 0.37599999 252 129 200
0.11289855 -0.077713683 0.37799996 252 129 200
0.1126019 -0.078570634 0.37899995 252 129 200
0.1126019 -0.079445615 0.37899995 252 129 200
0.1126019 -0.081195563 0.37899995 252 129 200
0.11289855 -0.082096696 0.37799996 252 129 200
0.11289855 -0.082973301 0.37799996 252 129 200
0.11289855 -0.083849907 0.37799996 252 129 200
0.11289855 -0.08560311 0.37799996 252 129 200
0.11289855 -0.086479716 0.37799996 252 129 200
0.11289855 -0.087356314 0.37799996 252 129 200
0.11289855 -0.089109525 0.37799996 252 129 200
0.11289855 -0.089986131 0.37799996 252 129 200
0.11200858 -0.10904169 0.38099998 252 129 200
0.11230523 -0.16239265 0.38 252 129 200
0.11289855 -0.16449741 0.37799996 252 129 200
0.11378854 -0.16767895 0.37499994 252 129 200
0.11526658 -0.074264847 0.37299997 252 129 200
0.11437172 -0.075110152 0.37599999 252 129 200
0.11437172 -0.082149006 0.37599999 252 129 200
0.11437172 -0.08302886 0.37599999 252 129 200
0.11228374 -0.097598419 0.38299996 252 129 200
0.11258202 -0.098523945 0.38199997 252 129 200
0.11258202 -0.099394038 0.38199997 252 129 200
0.11258202 -0.10113424 0.38199997 252 129 200
0.11258202 -0.10200433 0.38199997 252 129 200
0.11258202 -0.10287444 0.38199997 252 129 200
0.11258202 -0.10461463 0.38199997 252 129 200
0.11258202 -0.10548472 0.38199997 252 129 200
0.11258202 -0.10635483 0.38199997 252 129 200
0.11258202 -0.10722493 0.38199997 252 129 200
0.11437172 -0.16749504 0.37599999 252 129 200
0.11465176 -0.075960472 0.37799996 252 129 200
0.11435185 -0.07769566 0.37899995 252 129 200
0.11435185 -0.078570634 0.37899995 252 129 200
0.11435185 -0.079445615 0.37899995 252 129 200
0.11435185 -0.081195563 0.37899995 252 129 200
0.11435185 -0.083820499 0.37899995 252 129 200
0.11435185 -0.085570455 0.37899995 252 129 200
0.11435185 -0.086445428 0.37899995 252 129 200
0.11435185 -0.087320402 0.37899995 252 129 200
0.11345211 -0.097653851 0.38199997 252 129 200
0.11345211 -0.098523945 0.38199997 252 129 200
0.11345211 -0.099394038 0.38199997 252 129 200
0.11345211 -0.10113424 0.38199997 252 129 200
0.11345211 -0.10200433 0.38199997 252 129 200
0.11345211 -0.10287444 0.38199997 252 129 200
0.11345211 -0.10461463 0.38199997 252 129 200
0.11345211 -0.10548472 0.38199997 252 129 200
0.11345211 -0.10635483 0.38199997 252 129 200
0.11345211 -0.10722493 0.38199997 252 129 200
0.11345211 -0.10896512 0.38199997 252 129 200
0.11375203 -0.16221687 0.38099998 252 129 200
0.11405193 -0.16413936 0.38 252 129 200
0.11405193 -0.16501272 0.38 252 129 200
0.11465176 -0.16625062 0.37799996 252 129 200
0.11643297 -0.073360331 0.37499994 252 129 200
0.11582991 -0.07421878 0.37699997 252 129 200
0.11552835 -0.075083867 0.37799996 252 129 200
0.11522683 -0.075945705 0.37899995 252 129 200
0.11492529 -0.077677637 0.38 252 129 200
0.11492529 -0.078550987 0.38 252 129 200
0.11492529 -0.079424337 0.38 252 129 200
0.11492529 -0.081171036 0.38 252 129 200
0.11522683 -0.082070544 0.37899995 252 129 200
0.11522683 -0.082945526 0.37899995 252 129 200
0.11522683 -0.083820499 0.37899995 252 129 200
0.11522683 -0.085570455 0.37899995 252 129 200
0.11522683 -0.086445428 0.37899995 252 129 200
0.11402068 -0.096729949 0.38299996 252 129 200
0.11402068 -0.097598419 0.38299996 252 129 200
0.11432222 -0.098523945 0.38199997 252 129 200
0.11432222 -0.099394038 0.38199997 252 129 200
0.11432222 -0.10113424 0.38199997 252 129 200
0.11432222 -0.10200433 0.38199997 252 129 200
0.11432222 -0.10287444 0.38199997 252 129 200
0.11432222 -0.10461463 0.38199997 252 129 200
0.11432222 -0.10548472 0.38199997 252 129 200
0.11432222 -0.10635483 0.38199997 252 129 200
0.11432222 -0.10722493 0.38199997 252 129 200
0.11402068 -0.10888855 0.38299996 252 129 200
0.11402068 -0.10975702 0.38299996 252 129 200
0.11492529 -0.16413936 0.38 252 129 200
0.11613145 -0.16573533 0.37599999 252 129 200
0.11643297 -0.16679746 0.37499994 252 129 200
0.11552835 -0.16712722 0.37799996 252 129 200
0.11613145 -0.16925475 0.37599999 252 129 200
0.11822394 -0.068958193 0.37199998 252 129 200
0.11761763 -0.069837786 0.37399995 252 129 200
0.11731447 -0.070715889 0.37499994 252 129 200
0.1170113 -0.071590729 0.37599999 252 129 200
0.11670814 -0.07334055 0.37699997 252 129 200
0.11640496 -0.074207269 0.37799996 252 129 200
0.11610179 -0.075070724 0.37899995 252 129 200
0.11579864 -0.075930938 0.38 252 129 200
0.11579864 -0.077677637 0.38 252 129 200
0.11579864 -0.078550987 0.38 252 129 200
0.11579864 -0.079424337 0.38 252 129 200
0.11579864 -0.081171036 0.38 252 129 200
0.11579864 -0.082044393 0.38 252 129 200
0.11610179 -0.082945526 0.37899995 252 129 200
0.11610179 -0.083820499 0.37899995 252 129 200
0.11488915 -0.10107231 0.38299996 252 129 200
0.11488915 -0.10194078 0.38299996 252 129 200
0.11488915 -0.10280925 0.38299996 252 129 200
0.11488915 -0.10454619 0.38299996 252 129 200
0.11488915 -0.10541467 0.38299996 252 129 200
0.11488915 -0.10628314 0.38299996 252 129 200
0.11488915 -0.10715161 0.38299996 252 129 200
0.11488915 -0.10888855 0.38299996 252 129 200
0.11488915 -0.10975702 0.38299996 252 129 200
0.11488915 -0.11062549 0.38299996 252 129 200
0.11579864 -0.16413936 0.38 252 129 200
0.1194151 -0.066295989 0.37099999 252 129 200
0.11880552 -0.067186967 0.37299997 252 129 200
0.11850073 -0.068954676 0.37399995 252 129 200
0.11819594 -0.069834404 0.37499994 252 129 200
0.11789116 -0.070710875 0.37599999 252 129 200
0.11758637 -0.071584091 0.37699997 252 129 200
0.11728156 -0.073330663 0.37799996 252 129 200
0.11697678 -0.07419575 0.37899995 252 129 200
0.11697678 -0.075070724 0.37899995 252 129 200
0.11697678 -0.075945705 0.37899995 252 129 200
0.11697678 -0.07769566 0.37899995 252 129 200
0.11697678 -0.078570634 0.37899995 252 129 200
0.11697678 -0.079445615 0.37899995 252 129 200
0.11697678 -0.081195563 0.37899995 252 129 200
0.11697678 -0.082070544 0.37899995 252 129 200
0.11697678 -0.082945526 0.37899995 252 129 200
0.11453847 -0.096514747 0.38699996 252 129 200
0.11453847 -0.097376712 0.38699996 252 129 200
0.11514805 -0.098352782 0.38499999 252 129 200
0.11514805 -0.099218003 0.38499999 252 129 200
0.12030309 -0.063632026 0.37099999 252 129 200
0.11999667 -0.065412752 0.37199998 252 129 200
0.11969026 -0.066302232 0.37299997 252 129 200
0.11969026 -0.067186967 0.37299997 252 129 200
0.11631968 -0.094942451 0.38399994 252 129 200
0.11631968 -0.096676141 0.38399994 252 129 200
0.11631968 -0.097542994 0.38399994 252 129 200
0.11631968 -0.098409839 0.38399994 252 129 200
0.11631968 -0.099276677 0.38399994 252 129 200
0.11662609 -0.10107231 0.38299996 252 129 200
0.11662609 -0.10194078 0.38299996 252 129 200
0.11662609 -0.10280925 0.38299996 252 129 200
0.11662609 -0.10454619 0.38299996 252 129 200
0.11662609 -0.10541467 0.38299996 252 129 200
0.11662609 -0.10628314 0.38299996 252 129 200
0.11662609 -0.10715161 0.38299996 252 129 200
0.11662609 -0.10888855 0.38299996 252 129 200
0.11662609 -0.10975702 0.38299996 252 129 200
0.11662609 -0.11062549 0.38299996 252 129 200
0.11662609 -0.11236244 0.38299996 252 129 200
0.11965086 -0.06895116 0.37599999 252 129 200
0.11965086 -0.069831021 0.37599999 252 129 200
0.11934283 -0.070705861 0.37699997 252 129 200
0.11903477 -0.07157746 0.37799996 252 129 200
0.11872674 -0.073320776 0.37899995 252 129 200
0.11872674 -0.07419575 0.37899995 252 129 200
0.11841869 -0.075057581 0.38 252 129 200
0.11841869 -0.075930938 0.38 252 129 200
0.11841869 -0.077677637 0.38 252 129 200
0.11841869 -0.078550987 0.38 252 129 200
0.11841869 -0.079424337 0.38 252 129 200
0.11841869 -0.081171036 0.38 252 129 200
0.11841869 -0.082044393 0.38 252 129 200
0.11841869 -0.082917742 0.38 252 129 200
0.11718652 -0.094075613 0.38399994 252 129 200
0.11718652 -0.094942451 0.38399994 252 129 200
0.11687849 -0.096622348 0.38499999 252 129 200
0.11687849 -0.097487569 0.38499999 252 129 200
0.11687849 -0.098352782 0.38499999 252 129 200
0.11687849 -0.099218003 0.38499999 252 129 200
0.11718652 -0.10101037 0.38399994 252 129 200
0.11718652 -0.10187721 0.38399994 252 129 200
0.11749456 -0.10280925 0.38299996 252 129 200
0.11749456 -0.10454619 0.38299996 252 129 200
0.11749456 -0.10541467 0.38299996 252 129 200
0.11749456 -0.10628314 0.38299996 252 129 200
0.11749456 -0.10715161 0.38299996 252 129 200
0.11749456 -0.10888855 0.38299996 252 129 200
0.11749456 -0.10975702 0.38299996 252 129 200
0.11718652 -0.11054567 0.38399994 252 129 200
0.11718652 -0.11227936 0.38399994 252 129 200
0.12207907 -0.06185605 0.37099999 252 129 200
0.12176939 -0.062753662 0.37199998 252 129 200
0.12145973 -0.06364803 0.37299997 252 129 200
0.12115005 -0.065422244 0.37399995 252 129 200
0.12084039 -0.066308476 0.37499994 252 129 200
0.12084039 -0.067189954 0.37499994 252 129 200
0.12053072 -0.06895116 0.37599999 252 129 200
0.12053072 -0.069831021 0.37599999 252 129 200
0.12022106 -0.070705861 0.37699997 252 129 200
0.11991138 -0.07157746 0.37799996 252 129 200
0.1196017 -0.073320776 0.37899995 252 129 200
0.1196017 -0.07419575 0.37899995 252 129 200
0.11929204 -0.075057581 0.38 252 129 200
0.11929204 -0.075930938 0.38 252 129 200
0.11929204 -0.077677637 0.38 252 129 200
0.11929204 -0.078550987 0.38 252 129 200
0.11929204 -0.079424337 0.38 252 129 200
0.11929204 -0.081171036 0.38 252 129 200
0.11929204 -0.082044393 0.38 252 129 200
0.11929204 -0.082917742 0.38 252 129 200
0.11929204 -0.087284498 0.38 252 129 200
0.11929204 -0.089031197 0.38 252 129 200
0.11929204 -0.089904547 0.38 252 129 200
0.11929204 -0.090777896 0.38 252 129 200
0.11867271 -0.091563165 0.38199997 252 129 200
0.11805337 -0.093208767 0.38399994 252 129 200
0.11805337 -0.094075613 0.38399994 252 129 200
0.11774371 -0.10094844 0.38499999 252 129 200
0.11805337 -0.10187721 0.38399994 252 129 200
0.11805337 -0.10274406 0.38399994 252 129 200
0.11805337 -0.10447775 0.38399994 252 129 200
0.11836305 -0.10541467 0.38299996 252 129 200
0.11836305 -0.10628314 0.38299996 252 129 200
0.11805337 -0.10707828 0.38399994 252 129 200
0.11805337 -0.10881197 0.38399994 252 129 200
0.11805337 -0.10967882 0.38399994 252 129 200
0.11805337 -0.11054567 0.38399994 252 129 200
0.12296704 -0.06185605 0.37099999 252 129 200
0.12265576 -0.062753662 0.37199998 252 129 200
0.12234446 -0.06364803 0.37299997 252 129 200
0.12203317 -0.065422244 0.37399995 252 129 200
0.12172187 -0.066308476 0.37499994 252 129 200
0.12172187 -0.067189954 0.37499994 252 129 200
0.12141059 -0.06895116 0.37599999 252 129 200
0.12109929 -0.069827631 0.37699997 252 129 200
0.12109929 -0.070705861 0.37699997 252 129 200
0.12078799 -0.07157746 0.37799996 252 129 200
0.12047669 -0.073320776 0.37899995 252 129 200
0.12047669 -0.07419575 0.37899995 252 129 200
0.12016539 -0.075057581 0.38 252 129 200
0.12016539 -0.075930938 0.38 252 129 200
0.12016539 -0.077677637 0.38 252 129 200
0.12016539 -0.078550987 0.38 252 129 200
0.1198541 -0.079403065 0.38099998 252 129 200
0.1198541 -0.081146508 0.38099998 252 129 200
0.1198541 -0.082018241 0.38099998 252 129 200
0.1198541 -0.082889959 0.38099998 252 129 200
0.12016539 -0.083791092 0.38 252 129 200
0.12016539 -0.085537791 0.38 252 129 200
0.12016539 -0.086411148 0.38 252 129 200
0.12016539 -0.087284498 0.38 252 129 200
0.12016539 -0.089031197 0.38 252 129 200
0.12016539 -0.089904547 0.38 252 129 200
0.12016539 -0.090777896 0.38 252 129 200
0.1195428 -0.091563165 0.38199997 252 129 200
0.1195428 -0.09330336 0.38199997 252 129 200
0.11736373 -0.094689712 0.389 252 129 200
0.11736373 -0.096407138 0.389 252 129 200
0.11736373 -0.097265854 0.389 252 129 200
0.11705244 -0.098067507 0.38999999 252 129 200
0.11705244 -0.0989246 0.38999999 252 129 200
0.12354212 -0.060980942 0.37199998 252 129 200
0.1232292 -0.061878555 0.37299997 252 129 200
0.1232292 -0.062763289 0.37299997 252 129 200
0.12291627 -0.063656025 0.37399995 252 129 200
0.12291627 -0.065422244 0.37399995 252 129 200
0.12260335 -0.066308476 0.37499994 252 129 200
0.12229044 -0.067191452 0.37599999 252 129 200
0.12229044 -0.06895116 0.37599999 252 129 200
0.12229044 -0.069831021 0.37599999 252 129 200
0.11853538 -0.093879923 0.38799995 252 129 200
0.11822245 -0.094689712 0.389 252 129 200
0.11822245 -0.096407138 0.389 252 129 200
0.11822245 -0.097265854 0.389 252 129 200
0.11822245 -0.098124564 0.389 252 129 200
0.11822245 -0.09898328 0.389 252 129 200
0.11916123 -0.10088651 0.38599998 252 129 200
0.11947414 -0.10181366 0.38499999 252 129 200
0.11978706 -0.10274406 0.38399994 252 129 200
0.11978706 -0.10447775 0.38399994 252 129 200
0.11978706 -0.10534459 0.38399994 252 129 200
0.11978706 -0.10621144 0.38399994 252 129 200
0.11978706 -0.10707828 0.38399994 252 129 200
0.11978706 -0.10881197 0.38399994 252 129 200
0.11978706 -0.10967882 0.38399994 252 129 200
0.11978706 -0.11054567 0.38399994 252 129 200
0.12254118 -0.070700854 0.37799996 252 129 200
0.12254118 -0.07157746 0.37799996 252 129 200
0.12222663 -0.073320776 0.37899995 252 129 200
0.12222663 -0.07419575 0.37899995 252 129 200
0.1219121 -0.075057581 0.38 252 129 200
0.1219121 -0.075930938 0.38 252 129 200
0.1219121 -0.077677637 0.38 252 129 200
0.1219121 -0.078550987 0.38 252 129 200
0.12159755 -0.079403065 0.38099998 252 129 200
0.12159755 -0.081146508 0.38099998 252 129 200
0.12159755 -0.082018241 0.38099998 252 129 200
0.12159755 -0.082889959 0.38099998 252 129 200
0.12159755 -0.083761685 0.38099998 252 129 200
0.12159755 -0.085505135 0.38099998 252 129 200
0.1219121 -0.086411148 0.38 252 129 200
0.1219121 -0.087284498 0.38 252 129 200
0.1219121 -0.089031197 0.38 252 129 200
0.1219121 -0.089904547 0.38 252 129 200
0.1219121 -0.090777896 0.38 252 129 200
0.121283 -0.091563165 0.38199997 252 129 200
0.12033936 -0.093161471 0.38499999 252 129 200
0.11939573 -0.093879923 0.38799995 252 129 200
0.11908116 -0.094689712 0.389 252 129 200
0.11908116 -0.096407138 0.389 252 129 200
0.11876661 -0.097210422 0.38999999 252 129 200
0.11845206 -0.098010458 0.39099997 252 129 200
0.11845206 -0.098865919 0.39099997 252 129 200
0.11939573 -0.10076264 0.38799995 252 129 200
0.12002481 -0.1017501 0.38599998 252 129 200
0.1206539 -0.10274406 0.38399994 252 129 200
0.1206539 -0.10447775 0.38399994 252 129 200
0.1206539 -0.10534459 0.38399994 252 129 200
0.1206539 -0.10621144 0.38399994 252 129 200
0.1206539 -0.10707828 0.38399994 252 129 200
0.1206539 -0.10881197 0.38399994 252 129 200
0.1206539 -0.10967882 0.38399994 252 129 200
0.1206539 -0.11054567 0.38399994 252 129 200
0.12531483 -0.059208218 0.37199998 252 129 200
0.12499867 -0.06099382 0.37299997 252 129 200
0.12499867 -0.061878555 0.37299997 252 129 200
0.12468249 -0.062772915 0.37399995 252 129 200
0.12468249 -0.063656025 0.37399995 252 129 200
0.12436632 -0.06542699 0.37499994 252 129 200
0.12436632 -0.066308476 0.37499994 252 129 200
0.12405015 -0.067191452 0.37599999 252 129 200
0.12405015 -0.06895116 0.37599999 252 129 200
0.12373397 -0.069827631 0.37699997 252 129 200
0.12341779 -0.070700854 0.37799996 252 129 200
0.12341779 -0.07157746 0.37799996 252 129 200
0.12310161 -0.073320776 0.37899995 252 129 200
0.12310161 -0.07419575 0.37899995 252 129 200
0.12278544 -0.075057581 0.38 252 129 200
0.12278544 -0.075930938 0.38 252 129 200
0.12278544 -0.077677637 0.38 252 129 200
0.12246927 -0.07853134 0.38099998 252 129 200
0.12246927 -0.079403065 0.38099998 252 129 200
0.12246927 -0.081146508 0.38099998 252 129 200
0.12246927 -0.082018241 0.38099998 252 129 200
0.12246927 -0.082889959 0.38099998 252 129 200
0.12246927 -0.083761685 0.38099998 252 129 200
0.12246927 -0.085505135 0.38099998 252 129 200
0.12278544 -0.086411148 0.38 252 129 200
0.12278544 -0.087284498 0.38 252 129 200
0.12278544 -0.089031197 0.38 252 129 200
0.12278544 -0.089904547 0.38 252 129 200
0.12278544 -0.090777896 0.38 252 129 200
0.1221531 -0.091563165 0.38199997 252 129 200
0.12120458 -0.093161471 0.38499999 252 129 200
0.12025606 -0.093879923 0.38799995 252 129 200
0.11993987 -0.094689712 0.389 252 129 200
0.11993987 -0.096407138 0.389 252 129 200
0.1196237 -0.097210422 0.38999999 252 129 200
0.11993987 -0.098124564 0.389 252 129 200
0.1196237 -0.0989246 0.38999999 252 129 200
0.12025606 -0.10076264 0.38799995 252 129 200
0.12025606 -0.10162298 0.38799995 252 129 200
0.12120458 -0.10267888 0.38499999 252 129 200
0.12152075 -0.10447775 0.38399994 252 129 200
0.12152075 -0.10534459 0.38399994 252 129 200
0.12152075 -0.10621144 0.38399994 252 129 200
0.12152075 -0.10707828 0.38399994 252 129 200
0.12152075 -0.10881197 0.38399994 252 129 200
0.12152075 -0.10967882 0.38399994 252 129 200
0.12152075 -0.11054567 0.38399994 252 129 200
0.12152075 -0.11227936 0.38399994 252 129 200
0.12651899 -0.057416111 0.37099999 252 129 200
0.12620121 -0.058321856 0.37199998 252 129 200
0.1258834 -0.059224352 0.37299997 252 129 200
0.1258834 -0.06099382 0.37299997 252 129 200
0.12556559 -0.061889809 0.37399995 252 129 200
0.12556559 -0.062772915 0.37399995 252 129 200
0.12556559 -0.063656025 0.37399995 252 129 200
0.12524781 -0.06542699 0.37499994 252 129 200
0.12524781 -0.066308476 0.37499994 252 129 200
0.12493 -0.067191452 0.37599999 252 129 200
0.1246122 -0.068949401 0.37699997 252 129 200
0.1246122 -0.069827631 0.37699997 252 129 200
0.12429439 -0.070700854 0.37799996 252 129 200
0.12429439 -0.07157746 0.37799996 252 129 200
0.1239766 -0.073320776 0.37899995 252 129 200
0.1239766 -0.07419575 0.37899995 252 129 200
0.1236588 -0.075057581 0.38 252 129 200
0.1236588 -0.075930938 0.38 252 129 200
0.1236588 -0.077677637 0.38 252 129 200
0.123341 -0.07853134 0.38099998 252 129 200
0.123341 -0.079403065 0.38099998 252 129 200
0.123341 -0.081146508 0.38099998 252 129 200
0.123341 -0.082018241 0.38099998 252 129 200
0.123341 -0.082889959 0.38099998 252 129 200
0.123341 -0.083761685 0.38099998 252 129 200
0.123341 -0.085505135 0.38099998 252 129 200
0.123341 -0.086376861 0.38099998 252 129 200
0.1236588 -0.087284498 0.38 252 129 200
0.1236588 -0.089031197 0.38 252 129 200
0.1236588 -0.089904547 0.38 252 129 200
0.123341 -0.09073548 0.38099998 252 129 200
0.12302319 -0.091563165 0.38199997 252 129 200
0.1223876 -0.093208767 0.38399994 252 129 200
0.1223876 -0.10274406 0.38399994 252 129 200
0.1223876 -0.10447775 0.38399994 252 129 200
0.1223876 -0.10534459 0.38399994 252 129 200
0.1223876 -0.10621144 0.38399994 252 129 200
0.1223876 -0.10707828 0.38399994 252 129 200
0.1223876 -0.10881197 0.38399994 252 129 200
0.1223876 -0.10967882 0.38399994 252 129 200
0.1223876 -0.11054567 0.38399994 252 129 200
0.12740698 -0.057416111 0.37099999 252 129 200
0.12676814 -0.058339614 0.37299997 252 129 200
0.12676814 -0.059224352 0.37299997 252 129 200
0.12644872 -0.061006699 0.37399995 252 129 200
0.12644872 -0.061889809 0.37399995 252 129 200
0.12644872 -0.062772915 0.37399995 252 129 200
0.12644872 -0.063656025 0.37399995 252 129 200
0.1261293 -0.06542699 0.37499994 252 129 200
0.1261293 -0.066308476 0.37499994 252 129 200
0.12580985 -0.067191452 0.37599999 252 129 200
0.12549043 -0.068949401 0.37699997 252 129 200
0.12549043 -0.069827631 0.37699997 252 129 200
0.12517101 -0.070700854 0.37799996 252 129 200
0.12517101 -0.07157746 0.37799996 252 129 200
0.12485158 -0.073320776 0.37899995 252 129 200
0.12485158 -0.07419575 0.37899995 252 129 200
0.12485158 -0.075070724 0.37899995 252 129 200
0.12293502 -0.094026685 0.38499999 252 129 200
0.12293502 -0.094891906 0.38499999 252 129 200
0.12229616 -0.096514747 0.38699996 252 129 200
0.12197674 -0.097321279 0.38799995 252 129 200
0.1203796 -0.097896352 0.39299995 252 129 200
0.12229616 -0.099100642 0.38699996 252 129 200
0.11942133 -0.10026717 0.39599997 252 129 200
0.1216573 -0.10155942 0.389 252 129 200
0.12797391 -0.057435498 0.37199998 252 129 200
0.12765288 -0.058339614 0.37299997 252 129 200
0.12765288 -0.059224352 0.37299997 252 129 200
0.12765288 -0.06099382 0.37299997 252 129 200
0.12765288 -0.061878555 0.37299997 252 129 200
0.12540549 -0.075930938 0.38 252 129 200
0.12540549 -0.077677637 0.38 252 129 200
0.12508443 -0.07853134 0.38099998 252 129 200
0.12508443 -0.079403065 0.38099998 252 129 200
0.12508443 -0.081146508 0.38099998 252 129 200
0.12508443 -0.082018241 0.38099998 252 129 200
0.12508443 -0.082889959 0.38099998 252 129 200
0.12508443 -0.083761685 0.38099998 252 129 200
0.12508443 -0.085505135 0.38099998 252 129 200
0.12540549 -0.086411148 0.38 252 129 200
0.12540549 -0.087284498 0.38 252 129 200
0.12540549 -0.089031197 0.38 252 129 200
0.12540549 -0.089904547 0.38 252 129 200
0.12508443 -0.09073548 0.38099998 252 129 200
0.12476339 -0.091563165 0.38199997 252 129 200
0.12444235 -0.093256064 0.38299996 252 129 200
0.12412129 -0.094075613 0.38399994 252 129 200
0.12412129 -0.094942451 0.38399994 252 129 200
0.12380024 -0.096622348 0.38499999 252 129 200
0.12315813 -0.097376712 0.38699996 252 129 200
0.12347918 -0.098295726 0.38599998 252 129 200
0.12380024 -0.099218003 0.38499999 252 129 200
0.12380024 -0.10094844 0.38499999 252 129 200
0.12219497 -0.10149586 0.38999999 252 129 200
0.12380024 -0.10267888 0.38499999 252 129 200
0.12412129 -0.10447775 0.38399994 252 129 200
0.12412129 -0.10534459 0.38399994 252 129 200
0.12412129 -0.10621144 0.38399994 252 129 200
0.12412129 -0.10707828 0.38399994 252 129 200
0.12412129 -0.10881197 0.38399994 252 129 200
0.12412129 -0.10967882 0.38399994 252 129 200
0.12412129 -0.11054567 0.38399994 252 129 200
0.12821493 -0.062772915 0.37399995 252 129 200
0.12789226 -0.063664027 0.37499994 252 129 200
0.12789226 -0.06542699 0.37499994 252 129 200
0.12756959 -0.066311598 0.37599999 252 129 200
0.12756959 -0.067191452 0.37599999 252 129 200
0.12724689 -0.068949401 0.37699997 252 129 200
0.12724689 -0.069827631 0.37699997 252 129 200
0.12692422 -0.070700854 0.37799996 252 129 200
0.12692422 -0.07157746 0.37799996 252 129 200
0.12660152 -0.073320776 0.37899995 252 129 200
0.12660152 -0.07419575 0.37899995 252 129 200
0.12627885 -0.075057581 0.38 252 129 200
0.12627885 -0.075930938 0.38 252 129 200
0.12627885 -0.077677637 0.38 252 129 200
0.12595618 -0.07853134 0.38099998 252 129 200
0.12595618 -0.079403065 0.38099998 252 129 200
0.12595618 -0.081146508 0.38099998 252 129 200
0.12595618 -0.082018241 0.38099998 252 129 200
0.12595618 -0.082889959 0.38099998 252 129 200
0.12595618 -0.083761685 0.38099998 252 129 200
0.12627885 -0.085537791 0.38 252 129 200
0.12627885 -0.086411148 0.38 252 129 200
0.12627885 -0.087284498 0.38 252 129 200
0.12627885 -0.089031197 0.38 252 129 200
0.12627885 -0.089904547 0.38 252 129 200
0.12627885 -0.090777896 0.38 252 129 200
0.12595618 -0.091607206 0.38099998 252 129 200
0.12563348 -0.09330336 0.38199997 252 129 200
0.12563348 -0.094173454 0.38199997 252 129 200
0.12531081 -0.094993003 0.38299996 252 129 200
0.12498813 -0.096676141 0.38399994 252 129 200
0.12498813 -0.097542994 0.38399994 252 129 200
0.12466546 -0.10094844 0.38499999 252 129 200
0.12466546 -0.10181366 0.38499999 252 129 200
0.12498813 -0.10274406 0.38399994 252 129 200
0.12498813 -0.10447775 0.38399994 252 129 200
0.12498813 -0.10534459 0.38399994 252 129 200
0.12498813 -0.10621144 0.38399994 252 129 200
0.12498813 -0.10707828 0.38399994 252 129 200
0.12498813 -0.10881197 0.38399994 252 129 200
0.12498813 -0.10967882 0.38399994 252 129 200
0.12974665 -0.057435498 0.37199998 252 129 200
0.12942234 -0.058339614 0.37299997 252 129 200
0.12909803 -0.059240483 0.37399995 252 129 200
0.12909803 -0.061006699 0.37399995 252 129 200
0.12909803 -0.061889809 0.37399995 252 129 200
0.12909803 -0.062772915 0.37399995 252 129 200
0.12877372 -0.063664027 0.37499994 252 129 200
0.12877372 -0.06542699 0.37499994 252 129 200
0.12844944 -0.066311598 0.37599999 252 129 200
0.12844944 -0.067191452 0.37599999 252 129 200
0.12812513 -0.068949401 0.37699997 252 129 200
0.12812513 -0.069827631 0.37699997 252 129 200
0.12780079 -0.070700854 0.37799996 252 129 200
0.12780079 -0.07157746 0.37799996 252 129 200
0.12747651 -0.073320776 0.37899995 252 129 200
0.12747651 -0.07419575 0.37899995 252 129 200
0.1271522 -0.075057581 0.38 252 129 200
0.1271522 -0.075930938 0.38 252 129 200
0.1271522 -0.077677637 0.38 252 129 200
0.1268279 -0.07853134 0.38099998 252 129 200
0.1268279 -0.079403065 0.38099998 252 129 200
0.1268279 -0.081146508 0.38099998 252 129 200
0.1268279 -0.082018241 0.38099998 252 129 200
0.1268279 -0.082889959 0.38099998 252 129 200
0.1268279 -0.083761685 0.38099998 252 129 200
0.1271522 -0.085537791 0.38 252 129 200
0.1271522 -0.086411148 0.38 252 129 200
0.1271522 -0.087284498 0.38 252 129 200
0.1271522 -0.089031197 0.38 252 129 200
0.1271522 -0.089904547 0.38 252 129 200
0.1271522 -0.090777896 0.38 252 129 200
0.1271522 -0.091651246 0.38 252 129 200
0.1268279 -0.093350656 0.38099998 252 129 200
0.1268279 -0.094222382 0.38099998 252 129 200
0.1268279 -0.0950941 0.38099998 252 129 200
0.12650359 -0.09678375 0.38199997 252 129 200
0.12585497 -0.10187721 0.38399994 252 129 200
0.12585497 -0.10274406 0.38399994 252 129 200
0.12553066 -0.10440931 0.38499999 252 129 200
0.12585497 -0.10534459 0.38399994 252 129 200
0.12585497 -0.10621144 0.38399994 252 129 200
0.12585497 -0.10707828 0.38399994 252 129 200
0.12585497 -0.10881197 0.38399994 252 129 200
0.130633 -0.057435498 0.37199998 252 129 200
0.12998116 -0.058357373 0.37399995 252 129 200
0.12998116 -0.059240483 0.37399995 252 129 200
0.12998116 -0.061006699 0.37399995 252 129 200
0.12998116 -0.061889809 0.37399995 252 129 200
0.12965521 -0.062782541 0.37499994 252 129 200
0.12965521 -0.063664027 0.37499994 252 129 200
0.12965521 -0.06542699 0.37499994 252 129 200
0.12932929 -0.066311598 0.37599999 252 129 200
0.12900335 -0.067192942 0.37699997 252 129 200
0.12900335 -0.068949401 0.37699997 252 129 200
0.1286774 -0.069824249 0.37799996 252 129 200
0.1286774 -0.070700854 0.37799996 252 129 200
0.12835148 -0.071570821 0.37899995 252 129 200
0.12835148 -0.073320776 0.37899995 252 129 200
0.12802556 -0.074184231 0.38 252 129 200
0.12802556 -0.075057581 0.38 252 129 200
0.12802556 -0.075930938 0.38 252 129 200
0.12802556 -0.077677637 0.38 252 129 200
0.12769961 -0.07853134 0.38099998 252 129 200
0.12769961 -0.079403065 0.38099998 252 129 200
0.12769961 -0.081146508 0.38099998 252 129 200
0.12769961 -0.082018241 0.38099998 252 129 200
0.12769961 -0.082889959 0.38099998 252 129 200
0.12802556 -0.083791092 0.38 252 129 200
0.12802556 -0.085537791 0.38 252 129 200
0.12802556 -0.086411148 0.38 252 129 200
0.12835148 -0.087320402 0.37899995 252 129 200
0.12835148 -0.089070365 0.37899995 252 129 200
0.12802556 -0.089904547 0.38 252 129 200
0.12802556 -0.090777896 0.38 252 129 200
0.12802556 -0.091651246 0.38 252 129 200
0.12802556 -0.093397953 0.38 252 129 200
0.12802556 -0.094271302 0.38 252 129 200
0.12769961 -0.0950941 0.38099998 252 129 200
0.12769961 -0.09683755 0.38099998 252 129 200
0.1273737 -0.097653851 0.38199997 252 129 200
0.13151938 -0.057435498 0.37199998 252 129 200
0.13086426 -0.058357373 0.37399995 252 129 200
0.13086426 -0.059240483 0.37399995 252 129 200
0.13086426 -0.061006699 0.37399995 252 129 200
0.13086426 -0.061889809 0.37399995 252 129 200
0.13053671 -0.062782541 0.37499994 252 129 200
0.13053671 -0.063664027 0.37499994 252 129 200
0.13020915 -0.065431736 0.37599999 252 129 200
0.13020915 -0.066311598 0.37599999 252 129 200
0.12758866 -0.10274406 0.38399994 252 129 200
0.12758866 -0.10447775 0.38399994 252 129 200
0.12758866 -0.10534459 0.38399994 252 129 200
0.13273492 -0.057416111 0.37099999 252 129 200
0.13075981 -0.067192942 0.37699997 252 129 200
0.13075981 -0.068949401 0.37699997 252 129 200
0.13043061 -0.069824249 0.37799996 252 129 200
0.13043061 -0.070700854 0.37799996 252 129 200
0.13010144 -0.071570821 0.37899995 252 129 200
0.13010144 -0.073320776 0.37899995 252 129 200
0.12977225 -0.074184231 0.38 252 129 200
0.12977225 -0.075057581 0.38 252 129 200
0.12977225 -0.075930938 0.38 252 129 200
0.12977225 -0.077677637 0.38 252 129 200
0.12944308 -0.07853134 0.38099998 252 129 200
0.12944308 -0.079403065 0.38099998 252 129 200
0.12944308 -0.081146508 0.38099998 252 129 200
0.12944308 -0.082018241 0.38099998 252 129 200
0.12944308 -0.082889959 0.38099998 252 129 200
0.12977225 -0.083791092 0.38 252 129 200
0.12977225 -0.085537791 0.38 252 129 200
0.13010144 -0.086445428 0.37899995 252 129 200
0.12977225 -0.090777896 0.38 252 129 200
0.12977225 -0.091651246 0.38 252 129 200
0.12977225 -0.093397953 0.38 252 129 200
0.12977225 -0.094271302 0.38 252 129 200
0.12944308 -0.0950941 0.38099998 252 129 200
0.12944308 -0.09683755 0.38099998 252 129 200
0.13263047 -0.058357373 0.37399995 252 129 200
0.13263047 -0.059240483 0.37399995 252 129 200
0.13263047 -0.061006699 0.37399995 252 129 200
0.13229966 -0.061901063 0.37499994 252 129 200
0.13229966 -0.062782541 0.37499994 252 129 200
0.13196886 -0.063672028 0.37599999 252 129 200
0.13196886 -0.065431736 0.37599999 252 129 200
0.13196886 -0.066311598 0.37599999 252 129 200
0.13163805 -0.067192942 0.37699997 252 129 200
0.13163805 -0.068949401 0.37699997 252 129 200
0.13130721 -0.069824249 0.37799996 252 129 200
0.13130721 -0.070700854 0.37799996 252 129 200
0.13097641 -0.071570821 0.37899995 252 129 200
0.13097641 -0.073320776 0.37899995 252 129 200
0.1306456 -0.074184231 0.38 252 129 200
0.1306456 -0.075057581 0.38 252 129 200
0.1306456 -0.075930938 0.38 252 129 200
0.1306456 -0.077677637 0.38 252 129 200
0.1303148 -0.07853134 0.38099998 252 129 200
0.1303148 -0.079403065 0.38099998 252 129 200
0.1303148 -0.081146508 0.38099998 252 129 200
0.1303148 -0.082018241 0.38099998 252 129 200
0.1303148 -0.082889959 0.38099998 252 129 200
0.1306456 -0.083791092 0.38 252 129 200
0.13097641 -0.085570455 0.37899995 252 129 200
0.1306456 -0.093397953 0.38 252 129 200
0.1306456 -0.094271302 0.38 252 129 200
0.1306456 -0.095144652 0.38 252 129 200
0.13417846 -0.057435498 0.37199998 252 129 200
0.13351357 -0.058357373 0.37399995 252 129 200
0.13351357 -0.059240483 0.37399995 252 129 200
0.13318115 -0.061019577 0.37499994 252 129 200
0.13318115 -0.061901063 0.37499994 252 129 200
0.13318115 -0.062782541 0.37499994 252 129 200
0.13284871 -0.063672028 0.37599999 252 129 200
0.13284871 -0.065431736 0.37599999 252 129 200
0.13251626 -0.066314712 0.37699997 252 129 200
0.13251626 -0.067192942 0.37699997 252 129 200
0.13218382 -0.068947643 0.37799996 252 129 200
0.13218382 -0.069824249 0.37799996 252 129 200
0.13218382 -0.070700854 0.37799996 252 129 200
0.13185138 -0.071570821 0.37899995 252 129 200
0.13185138 -0.073320776 0.37899995 252 129 200
0.13151896 -0.074184231 0.38 252 129 200
0.13151896 -0.075057581 0.38 252 129 200
0.13151896 -0.075930938 0.38 252 129 200
0.13151896 -0.077677637 0.38 252 129 200
0.13118652 -0.07853134 0.38099998 252 129 200
0.13118652 -0.079403065 0.38099998 252 129 200
0.13118652 -0.081146508 0.38099998 252 129 200
0.13118652 -0.082018241 0.38099998 252 129 200
0.13118652 -0.082889959 0.38099998 252 129 200
0.13151896 -0.083791092 0.38 252 129 200
0.13185138 -0.085570455 0.37899995 252 129 200
0.13417846 -0.086685427 0.37199998 252 129 200
0.13506481 -0.057435498 0.37199998 252 129 200
0.1343967 -0.058357373 0.37399995 252 129 200
0.1343967 -0.059240483 0.37399995 252 129 200
0.13406262 -0.061019577 0.37499994 252 129 200
0.13406262 -0.061901063 0.37499994 252 129 200
0.13372856 -0.062792167 0.37599999 252 129 200
0.13372856 -0.063672028 0.37599999 252 129 200
0.13372856 -0.065431736 0.37599999 252 129 200
0.13339451 -0.066314712 0.37699997 252 129 200
0.13339451 -0.067192942 0.37699997 252 129 200
0.13306043 -0.068947643 0.37799996 252 129 200
0.13306043 -0.069824249 0.37799996 252 129 200
0.13306043 -0.070700854 0.37799996 252 129 200
0.13272637 -0.071570821 0.37899995 252 129 200
0.13272637 -0.073320776 0.37899995 252 129 200
0.13272637 -0.07419575 0.37899995 252 129 200
0.13272637 -0.075070724 0.37899995 252 129 200
0.13272637 -0.081195563 0.37899995 252 129 200
0.13272637 -0.082070544 0.37899995 252 129 200
0.13272637 -0.082945526 0.37899995 252 129 200
0.13272637 -0.083820499 0.37899995 252 129 200
0.13272637 -0.085570455 0.37899995 252 129 200
0.13272637 -0.086445428 0.37899995 252 129 200
0.13406262 -0.087464049 0.37499994 252 129 200
0.1343967 -0.090149291 0.37399995 252 129 200
0.1343967 -0.091032401 0.37399995 252 129 200
0.13628685 -0.057416111 0.37099999 252 129 200
0.1352798 -0.058357373 0.37399995 252 129 200
0.1352798 -0.059240483 0.37399995 252 129 200
0.1352798 -0.061006699 0.37399995 252 129 200
0.13326564 -0.075930938 0.38 252 129 200
0.13326564 -0.077677637 0.38 252 129 200
0.13326564 -0.078550987 0.38 252 129 200
0.13292995 -0.079403065 0.38099998 252 129 200
0.15005016 -0.12249346 0.32999998 252 129 200
0.1358256 -0.061901063 0.37499994 252 129 200
0.13548827 -0.062792167 0.37599999 252 129 200
0.13548827 -0.063672028 0.37599999 252 129 200
0.13548827 -0.065431736 0.37599999 252 129 200
0.13515097 -0.066314712 0.37699997 252 129 200
0.13515097 -0.067192942 0.37699997 252 129 200
0.13481364 -0.068947643 0.37799996 252 129 200
0.13481364 -0.069824249 0.37799996 252 129 200
0.13481364 -0.070700854 0.37799996 252 129 200
0.1344763 -0.071570821 0.37899995 252 129 200
0.1344763 -0.073320776 0.37899995 252 129 200
0.134139 -0.074184231 0.38 252 129 200
0.134139 -0.075057581 0.38 252 129 200
0.134139 -0.075930938 0.38 252 129 200
0.134139 -0.077677637 0.38 252 129 200
0.134139 -0.078550987 0.38 252 129 200
0.134139 -0.079424337 0.38 252 129 200
0.1338017 -0.081146508 0.38099998 252 129 200
0.1338017 -0.082018241 0.38099998 252 129 200
0.1338017 -0.082889959 0.38099998 252 129 200
0.134139 -0.083791092 0.38 252 129 200
0.134139 -0.085537791 0.38 252 129 200
0.1344763 -0.086445428 0.37899995 252 129 200
0.13548827 -0.087428138 0.37599999 252 129 200
0.13515097 -0.089148685 0.37699997 252 129 200
0.15066752 -0.12049454 0.33099997 252 129 200
0.15066752 -0.12144758 0.33099997 252 129 200
0.13670707 -0.059256613 0.37499994 252 129 200
0.13636813 -0.061032459 0.37599999 252 129 200
0.13636813 -0.061912313 0.37599999 252 129 200
0.13636813 -0.062792167 0.37599999 252 129 200
0.13636813 -0.063672028 0.37599999 252 129 200
0.13602918 -0.065436482 0.37699997 252 129 200
0.13602918 -0.066314712 0.37699997 252 129 200
0.13602918 -0.067192942 0.37699997 252 129 200
0.13569024 -0.068947643 0.37799996 252 129 200
0.13569024 -0.069824249 0.37799996 252 129 200
0.13569024 -0.070700854 0.37799996 252 129 200
0.1353513 -0.071570821 0.37899995 252 129 200
0.1353513 -0.073320776 0.37899995 252 129 200
0.1353513 -0.07419575 0.37899995 252 129 200
0.13501236 -0.075057581 0.38 252 129 200
0.13501236 -0.075930938 0.38 252 129 200
0.13501236 -0.077677637 0.38 252 129 200
0.13501236 -0.078550987 0.38 252 129 200
0.13501236 -0.079424337 0.38 252 129 200
0.13467342 -0.081146508 0.38099998 252 129 200
0.13467342 -0.082018241 0.38099998 252 129 200
0.13501236 -0.082917742 0.38 252 129 200
0.13501236 -0.083791092 0.38 252 129 200
0.13501236 -0.085537791 0.38 252 129 200
0.1353513 -0.086445428 0.37899995 252 129 200
0.13602918 -0.087392226 0.37699997 252 129 200
0.13758856 -0.061019577 0.37499994 252 129 200
0.13724798 -0.061912313 0.37599999 252 129 200
0.13724798 -0.062792167 0.37599999 252 129 200
0.13724798 -0.063672028 0.37599999 252 129 200
0.13724798 -0.065431736 0.37599999 252 129 200
0.13690743 -0.066314712 0.37699997 252 129 200
0.13690743 -0.067192942 0.37699997 252 129 200
0.13690743 -0.068949401 0.37699997 252 129 200
0.13656685 -0.069824249 0.37799996 252 129 200
0.13656685 -0.070700854 0.37799996 252 129 200
0.13622627 -0.071570821 0.37899995 252 129 200
0.13622627 -0.073320776 0.37899995 252 129 200
0.13622627 -0.07419575 0.37899995 252 129 200
0.13588572 -0.075057581 0.38 252 129 200
0.13588572 -0.075930938 0.38 252 129 200
0.13588572 -0.077677637 0.38 252 129 200
0.13588572 -0.078550987 0.38 252 129 200
0.13588572 -0.079424337 0.38 252 129 200
0.13588572 -0.081171036 0.38 252 129 200
0.13588572 -0.082044393 0.38 252 129 200
0.13588572 -0.082917742 0.38 252 129 200
0.13588572 -0.083791092 0.38 252 129 200
0.13622627 -0.085570455 0.37899995 252 129 200
0.13656685 -0.086479716 0.37799996 252 129 200
0.13847005 -0.061019577 0.37499994 252 129 200
0.13847005 -0.061901063 0.37499994 252 129 200
0.13847005 -0.062782541 0.37499994 252 129 200
0.13812783 -0.063672028 0.37599999 252 129 200
0.13866389 -0.065436482 0.37699997 252 129 200
0.13866389 -0.066314712 0.37699997 252 129 200
0.13866389 -0.067192942 0.37699997 252 129 200
0.13866389 -0.068949401 0.37699997 252 129 200
0.13832006 -0.069824249 0.37799996 252 129 200
0.13832006 -0.070700854 0.37799996 252 129 200
0.13832006 -0.07157746 0.37799996 252 129 200
0.13797623 -0.073320776 0.37899995 252 129 200
0.13797623 -0.07419575 0.37899995 252 129 200
0.13797623 -0.075070724 0.37899995 252 129 200
0.1376324 -0.075930938 0.38 252 129 200
0.1376324 -0.077677637 0.38 252 129 200
0.1376324 -0.078550987 0.38 252 129 200
0.1376324 -0.079424337 0.38 252 129 200
0.1376324 -0.081171036 0.38 252 129 200
0.1376324 -0.082044393 0.38 252 129 200
0.1376324 -0.082917742 0.38 252 129 200
0.1376324 -0.083791092 0.38 252 129 200
0.14057845 -0.062772915 0.37399995 252 129 200
0.14057845 -0.063656025 0.37399995 252 129 200
0.14057845 -0.065422244 0.37399995 252 129 200
0.14057845 -0.066305354 0.37399995 252 129 200
0.14023301 -0.067189954 0.37499994 252 129 200
0.13988757 -0.06895116 0.37599999 252 129 200
0.1395421 -0.069827631 0.37699997 252 129 200
0.1395421 -0.070705861 0.37699997 252 129 200
0.13919666 -0.07157746 0.37799996 252 129 200
0.13919666 -0.073330663 0.37799996 252 129 200
0.13919666 -0.074207269 0.37799996 252 129 200
0.1388512 -0.075070724 0.37899995 252 129 200
0.1388512 -0.075945705 0.37899995 252 129 200
0.1388512 -0.07769566 0.37899995 252 129 200
0.1388512 -0.078570634 0.37899995 252 129 200
0.13850576 -0.079424337 0.38 252 129 200
0.13850576 -0.081171036 0.38 252 129 200
0.13850576 -0.082044393 0.38 252 129 200
0.14250278 -0.066295989 0.37099999 252 129 200
0.14180863 -0.067186967 0.37299997 252 129 200
0.14111447 -0.068952918 0.37499994 252 129 200
0.14076743 -0.069831021 0.37599999 252 129 200
0.14042035 -0.070705861 0.37699997 252 129 200
0.14042035 -0.071584091 0.37699997 252 129 200
0.14007324 -0.073330663 0.37799996 252 129 200
0.14007324 -0.074207269 0.37799996 252 129 200
0.14007324 -0.075083867 0.37799996 252 129 200
0.14007324 -0.075960472 0.37799996 252 129 200
0.13972619 -0.07769566 0.37899995 252 129 200
0.13972619 -0.078570634 0.37899995 252 129 200
0.13972619 -0.079445615 0.37899995 252 129 200
0.13972619 -0.081195563 0.37899995 252 129 200
0.14304206 -0.068958193 0.37199998 252 129 200
0.14234468 -0.069837786 0.37399995 252 129 200
0.14164728 -0.070710875 0.37599999 252 129 200
0.14129856 -0.071584091 0.37699997 252 129 200
0.14129856 -0.07334055 0.37699997 252 129 200
0.14129856 -0.07421878 0.37699997 252 129 200
0.14129856 -0.07509701 0.37699997 252 129 200
0.14129856 -0.075975239 0.37699997 252 129 200
0.14129856 -0.077731699 0.37699997 252 129 200
0.14094985 -0.078590281 0.37799996 252 129 200
0.14094985 -0.079466887 0.37799996 252 129 200
0.14094985 -0.08122009 0.37799996 252 129 200
0.14392844 -0.069844559 0.37199998 252 129 200
0.14322779 -0.070720896 0.37399995 252 129 200
0.14375892 -0.071597368 0.37499994 252 129 200
0.14340699 -0.073350444 0.37599999 252 129 200
0.14340699 -0.074230298 0.37599999 252 129 200
0.14340699 -0.075110152 0.37599999 252 129 200
0.14340699 -0.075990014 0.37599999 252 129 200
0.14340699 -0.077749722 0.37599999 252 129 200
0.14305502 -0.078609928 0.37699997 252 129 200
0.14305502 -0.079488158 0.37699997 252 129 200
0.14305502 -0.081244618 0.37699997 252 129 200
0.14605474 -0.070735931 0.37099999 252 129 200
0.14570114 -0.071617283 0.37199998 252 129 200
0.14534757 -0.073380113 0.37299997 252 129 200
0.14499399 -0.074253336 0.37399995 252 129 200
0.14499399 -0.075136438 0.37399995 252 129 200
0.14499399 -0.076902658 0.37399995 252 129 200
0.14464042 -0.077767745 0.37499994 252 129 200
0.14464042 -0.07864923 0.37499994 252 129 200
0.14464042 -0.079530708 0.37499994 252 129 200
0.14428684 -0.081269145 0.37599999 252 129 200
0.14694273 -0.075175866 0.37099999 252 129 200
0.14658752 -0.076935448 0.37199998 252 129 200
0.14623231 -0.077803791 0.37299997 252 129 200
0.14587709 -0.078668877 0.37399995 252 129 200
0.14587709 -0.079551987 0.37399995 252 129 200
0.14587709 -0.0813182 0.37399995 252 129 200
0.14623231 -0.082227468 0.37299997 252 129 200
0.14747387 -0.078708172 0.37199998 252 129 200
0.14711705 -0.079573259 0.37299997 252 129 200
0.14676023 -0.0813182 0.37399995 252 129 200
0.14711705 -0.082227468 0.37299997 252 129 200
0.1492466 -0.077821814 0.37199998 252 129 200
0.1492466 -0.078708172 0.37199998 252 129 200
0.1488865 -0.079573259 0.37299997 252 129 200
0.1488865 -0.081342727 0.37299997 252 129 200
0.1492466 -0.08225362 0.37199998 252 129 200
0.15049466 -0.079615809 0.37099999 252 129 200
0.15049466 -0.081391782 0.37099999 252 129 200
0.15049466 -0.082279772 0.37099999 252 129 200
0 0 0 1 0 0 0 1 0 0 0 1 0 0 0 0 0 1018 1 0 0
