ply
format ascii 1.0
comment PCL generated
element vertex 1040
property float x
property float y
property float z
property uchar red
property uchar green
property uchar blue
element camera 0
property float view_px
property float view_py
property float view_pz
property float x_axisx
property float x_axisy
property float x_axisz
property float y_axisx
property float y_axisy
property float y_axisz
property float z_axisx
property float z_axisy
property float z_axisz
property float focal
property float scalex
property float scaley
property float centerx
property float centery
property int viewportx
property int viewporty
property float k1
property float k2
end_header
-0.056182534 -0.18509437 0.38399994 105 177 1
-0.056182534 -0.18682806 0.38399994 105 177 1
-0.056182534 -0.18769491 0.38399994 105 177 1
-0.056182534 -0.18856175 0.38399994 105 177 1
-0.056165304 -0.18920076 0.38499999 105 177 1
-0.056165304 -0.1909312 0.38499999 105 177 1
-0.056165304 -0.19179642 0.38499999 105 177 1
-0.056165304 -0.19266164 0.38499999 105 177 1
-0.056165304 -0.19439209 0.38499999 105 177 1
-0.056165304 -0.19525729 0.38499999 105 177 1
-0.056165304 -0.19612251 0.38499999 105 177 1
-0.056165304 -0.19698773 0.38499999 105 177 1
-0.056165304 -0.19871818 0.38499999 105 177 1
-0.056165304 -0.1995834 0.38499999 105 177 1
-0.056165304 -0.20044862 0.38499999 105 177 1
-0.056165304 -0.20217904 0.38499999 105 177 1
-0.056165304 -0.20304427 0.38499999 105 177 1
-0.056165304 -0.20390949 0.38499999 105 177 1
-0.056165304 -0.20477471 0.38499999 105 177 1
-0.056165304 -0.20650515 0.38499999 105 177 1
-0.056165304 -0.20737036 0.38499999 105 177 1
-0.056165304 -0.20823558 0.38499999 105 177 1
-0.056165304 -0.20996602 0.38499999 105 177 1
-0.056165304 -0.21083124 0.38499999 105 177 1
-0.056182534 -0.21196657 0.38399994 105 177 1
-0.056165304 -0.21256168 0.38499999 105 177 1
-0.056165304 -0.21429211 0.38499999 105 177 1
-0.056165304 -0.21515733 0.38499999 105 177 1
-0.056165304 -0.21602255 0.38499999 105 177 1
-0.056165304 -0.21775299 0.38499999 105 177 1
-0.055393696 -0.12581939 0.37899995 105 177 1
-0.055409297 -0.12680347 0.37799996 105 177 1
-0.055409297 -0.12855667 0.37799996 105 177 1
-0.055409297 -0.12943327 0.37799996 105 177 1
-0.055409297 -0.13030988 0.37799996 105 177 1
-0.055409297 -0.13118649 0.37799996 105 177 1
-0.055409297 -0.1329397 0.37799996 105 177 1
-0.055424899 -0.1339384 0.37699997 105 177 1
-0.055424899 -0.13481665 0.37699997 105 177 1
-0.055424899 -0.13657311 0.37699997 105 177 1
-0.055424899 -0.13745132 0.37699997 105 177 1
-0.055424899 -0.13832957 0.37699997 105 177 1
-0.055409297 -0.13907592 0.37799996 105 177 1
-0.055393696 -0.14069399 0.37899995 105 177 1
-0.055362493 -0.14129549 0.38099998 105 177 1
-0.055346891 -0.14202884 0.38199997 105 177 1
-0.05533129 -0.14362741 0.38299996 105 177 1
-0.055315688 -0.14435264 0.38399994 105 177 1
-0.055315688 -0.14521948 0.38399994 105 177 1
-0.055315688 -0.14608634 0.38399994 105 177 1
-0.055300087 -0.14767027 0.38499999 105 177 1
-0.055300087 -0.14853549 0.38499999 105 177 1
-0.055300087 -0.14940071 0.38499999 105 177 1
-0.055300087 -0.15026592 0.38499999 105 177 1
-0.055300087 -0.15199636 0.38499999 105 177 1
-0.055315688 -0.1530211 0.38399994 105 177 1
-0.055315688 -0.15388793 0.38399994 105 177 1
-0.055315688 -0.15562162 0.38399994 105 177 1
-0.055315688 -0.15648848 0.38399994 105 177 1
-0.055315688 -0.15735531 0.38399994 105 177 1
-0.05533129 -0.15839143 0.38299996 105 177 1
-0.05533129 -0.16012838 0.38299996 105 177 1
-0.055346891 -0.16117099 0.38199997 105 177 1
-0.055362493 -0.16221687 0.38099998 105 177 1
-0.055378094 -0.16413936 0.38 105 177 1
-0.055378094 -0.16501272 0.38 105 177 1
-0.055393696 -0.16606835 0.37899995 105 177 1
-0.055393696 -0.16694331 0.37899995 105 177 1
-0.055393696 -0.16869327 0.37899995 105 177 1
-0.055378094 -0.16937947 0.38 105 177 1
-0.055378094 -0.17025281 0.38 105 177 1
-0.055378094 -0.17199951 0.38 105 177 1
-0.055362493 -0.17267758 0.38099998 105 177 1
-0.055362493 -0.17354929 0.38099998 105 177 1
-0.055362493 -0.17442101 0.38099998 105 177 1
-0.055346891 -0.17596267 0.38199997 105 177 1
-0.055346891 -0.17683277 0.38199997 105 177 1
-0.055346891 -0.17770287 0.38199997 105 177 1
-0.05533129 -0.17923474 0.38299996 105 177 1
-0.05533129 -0.18010321 0.38299996 105 177 1
-0.055315688 -0.18076015 0.38399994 105 177 1
-0.055315688 -0.18162698 0.38399994 105 177 1
-0.055315688 -0.18336068 0.38399994 105 177 1
-0.055315688 -0.18422753 0.38399994 105 177 1
-0.055315688 -0.18509437 0.38399994 105 177 1
-0.055315688 -0.18682806 0.38399994 105 177 1
-0.055315688 -0.18769491 0.38399994 105 177 1
-0.055315688 -0.18856175 0.38399994 105 177 1
-0.055300087 -0.18920076 0.38499999 105 177 1
-0.055300087 -0.1909312 0.38499999 105 177 1
-0.055300087 -0.19179642 0.38499999 105 177 1
-0.055300087 -0.19266164 0.38499999 105 177 1
-0.055300087 -0.19439209 0.38499999 105 177 1
-0.055300087 -0.19525729 0.38499999 105 177 1
-0.055300087 -0.19612251 0.38499999 105 177 1
-0.055300087 -0.19698773 0.38499999 105 177 1
-0.055300087 -0.19871818 0.38499999 105 177 1
-0.055300087 -0.1995834 0.38499999 105 177 1
-0.055300087 -0.20044862 0.38499999 105 177 1
-0.055300087 -0.20217904 0.38499999 105 177 1
-0.055300087 -0.20304427 0.38499999 105 177 1
-0.055300087 -0.20390949 0.38499999 105 177 1
-0.055300087 -0.20477471 0.38499999 105 177 1
-0.055300087 -0.20650515 0.38499999 105 177 1
-0.055300087 -0.20737036 0.38499999 105 177 1
-0.055300087 -0.20823558 0.38499999 105 177 1
-0.055300087 -0.20996602 0.38499999 105 177 1
-0.055300087 -0.21083124 0.38499999 105 177 1
-0.055315688 -0.21196657 0.38399994 105 177 1
-0.055315688 -0.21283342 0.38399994 105 177 1
-0.055300087 -0.21429211 0.38499999 105 177 1
-0.055300087 -0.21515733 0.38499999 105 177 1
-0.055300087 -0.21602255 0.38499999 105 177 1
-0.055300087 -0.21775299 0.38499999 105 177 1
-0.054504745 -0.12571193 0.38 105 177 1
-0.054518718 -0.12669437 0.37899995 105 177 1
-0.054518718 -0.12844433 0.37899995 105 177 1
-0.054518718 -0.12931931 0.37899995 105 177 1
-0.054532692 -0.13030988 0.37799996 105 177 1
-0.054532692 -0.13118649 0.37799996 105 177 1
-0.054532692 -0.1329397 0.37799996 105 177 1
-0.054532692 -0.1338163 0.37799996 105 177 1
-0.054546669 -0.13481665 0.37699997 105 177 1
-0.054546669 -0.13657311 0.37699997 105 177 1
-0.054546669 -0.13745132 0.37699997 105 177 1
-0.054532692 -0.13819931 0.37799996 105 177 1
-0.054532692 -0.13907592 0.37799996 105 177 1
-0.054518718 -0.14069399 0.37899995 105 177 1
-0.054490767 -0.14129549 0.38099998 105 177 1
-0.054462817 -0.14189047 0.38299996 105 177 1
-0.054448843 -0.14348578 0.38399994 105 177 1
-0.054448843 -0.14435264 0.38399994 105 177 1
-0.054448843 -0.14521948 0.38399994 105 177 1
-0.054448843 -0.14608634 0.38399994 105 177 1
-0.054434866 -0.14767027 0.38499999 105 177 1
-0.054434866 -0.14853549 0.38499999 105 177 1
-0.054434866 -0.14940071 0.38499999 105 177 1
-0.054434866 -0.15026592 0.38499999 105 177 1
-0.054434866 -0.15199636 0.38499999 105 177 1
-0.054434866 -0.15286157 0.38499999 105 177 1
-0.054434866 -0.15372679 0.38499999 105 177 1
-0.054448843 -0.15562162 0.38399994 105 177 1
-0.054448843 -0.15648848 0.38399994 105 177 1
-0.054448843 -0.15735531 0.38399994 105 177 1
-0.054462817 -0.15839143 0.38299996 105 177 1
-0.054462817 -0.16012838 0.38299996 105 177 1
-0.054476794 -0.16117099 0.38199997 105 177 1
-0.054490767 -0.16221687 0.38099998 105 177 1
-0.054490767 -0.16396032 0.38099998 105 177 1
-0.054504745 -0.16501272 0.38 105 177 1
-0.054504745 -0.16588606 0.38 105 177 1
-0.054504745 -0.1667594 0.38 105 177 1
-0.054504745 -0.16850612 0.38 105 177 1
-0.054504745 -0.16937947 0.38 105 177 1
-0.054504745 -0.17025281 0.38 105 177 1
-0.054504745 -0.17199951 0.38 105 177 1
-0.054490767 -0.17267758 0.38099998 105 177 1
-0.054490767 -0.17354929 0.38099998 105 177 1
-0.054490767 -0.17442101 0.38099998 105 177 1
-0.054476794 -0.17596267 0.38199997 105 177 1
-0.054476794 -0.17683277 0.38199997 105 177 1
-0.054476794 -0.17770287 0.38199997 105 177 1
-0.054462817 -0.17923474 0.38299996 105 177 1
-0.054462817 -0.18010321 0.38299996 105 177 1
-0.054462817 -0.1809717 0.38299996 105 177 1
-0.054448843 -0.18162698 0.38399994 105 177 1
-0.054448843 -0.18336068 0.38399994 105 177 1
-0.054448843 -0.18422753 0.38399994 105 177 1
-0.054448843 -0.18509437 0.38399994 105 177 1
-0.054448843 -0.18682806 0.38399994 105 177 1
-0.054448843 -0.18769491 0.38399994 105 177 1
-0.054448843 -0.18856175 0.38399994 105 177 1
-0.054448843 -0.1894286 0.38399994 105 177 1
-0.054434866 -0.1909312 0.38499999 105 177 1
-0.054434866 -0.19179642 0.38499999 105 177 1
-0.054434866 -0.19266164 0.38499999 105 177 1
-0.054434866 -0.19439209 0.38499999 105 177 1
-0.054434866 -0.19525729 0.38499999 105 177 1
-0.054434866 -0.19612251 0.38499999 105 177 1
-0.054434866 -0.19698773 0.38499999 105 177 1
-0.054434866 -0.19871818 0.38499999 105 177 1
-0.054434866 -0.1995834 0.38499999 105 177 1
-0.054434866 -0.20044862 0.38499999 105 177 1
-0.054434866 -0.20217904 0.38499999 105 177 1
-0.054434866 -0.20304427 0.38499999 105 177 1
-0.054434866 -0.20390949 0.38499999 105 177 1
-0.054434866 -0.20477471 0.38499999 105 177 1
-0.054434866 -0.20650515 0.38499999 105 177 1
-0.054448843 -0.20763235 0.38399994 105 177 1
-0.054448843 -0.20849919 0.38399994 105 177 1
-0.054448843 -0.21023288 0.38399994 105 177 1
-0.054448843 -0.21109973 0.38399994 105 177 1
-0.054448843 -0.21196657 0.38399994 105 177 1
-0.054448843 -0.21283342 0.38399994 105 177 1
-0.054448843 -0.21456711 0.38399994 105 177 1
-0.054434866 -0.21515733 0.38499999 105 177 1
-0.054434866 -0.21602255 0.38499999 105 177 1
-0.054434866 -0.21775299 0.38499999 105 177 1
-0.053631391 -0.12833197 0.38 105 177 1
-0.053643741 -0.12931931 0.37899995 105 177 1
-0.053643741 -0.13019428 0.37899995 105 177 1
-0.05365609 -0.13118649 0.37799996 105 177 1
-0.05365609 -0.1329397 0.37799996 105 177 1
-0.05365609 -0.1338163 0.37799996 105 177 1
-0.05365609 -0.13469291 0.37799996 105 177 1
-0.05365609 -0.1364461 0.37799996 105 177 1
-0.05365609 -0.13732271 0.37799996 105 177 1
-0.05365609 -0.13819931 0.37799996 105 177 1
-0.05365609 -0.13907592 0.37799996 105 177 1
-0.053643741 -0.14069399 0.37899995 105 177 1
-0.053619042 -0.14129549 0.38099998 105 177 1
-0.053619042 -0.16396032 0.38099998 105 177 1
-0.053619042 -0.16483206 0.38099998 105 177 1
-0.053631391 -0.16588606 0.38 105 177 1
-0.053631391 -0.1667594 0.38 105 177 1
-0.053631391 -0.16850612 0.38 105 177 1
-0.053631391 -0.16937947 0.38 105 177 1
-0.053631391 -0.17025281 0.38 105 177 1
-0.053631391 -0.17199951 0.38 105 177 1
-0.053619042 -0.17267758 0.38099998 105 177 1
-0.053619042 -0.17354929 0.38099998 105 177 1
-0.053619042 -0.17442101 0.38099998 105 177 1
-0.053619042 -0.17616446 0.38099998 105 177 1
-0.052693706 -0.1242035 0.38599998 105 177 1
-0.052704427 -0.12517457 0.38499999 105 177 1
-0.052736595 -0.12636708 0.38199997 105 177 1
-0.052725874 -0.14189047 0.38299996 105 177 1
-0.052715153 -0.14348578 0.38399994 105 177 1
-0.052715153 -0.14435264 0.38399994 105 177 1
-0.052715153 -0.14521948 0.38399994 105 177 1
-0.052715153 -0.14608634 0.38399994 105 177 1
-0.052704427 -0.14767027 0.38499999 105 177 1
-0.052704427 -0.14853549 0.38499999 105 177 1
-0.052704427 -0.14940071 0.38499999 105 177 1
-0.052704427 -0.15026592 0.38499999 105 177 1
-0.052704427 -0.15199636 0.38499999 105 177 1
-0.052704427 -0.15286157 0.38499999 105 177 1
-0.052704427 -0.15372679 0.38499999 105 177 1
-0.052715153 -0.15562162 0.38399994 105 177 1
-0.052715153 -0.15648848 0.38399994 105 177 1
-0.052715153 -0.15735531 0.38399994 105 177 1
-0.052715153 -0.15822217 0.38399994 105 177 1
-0.052725874 -0.16012838 0.38299996 105 177 1
-0.052725874 -0.16099685 0.38299996 105 177 1
-0.052736595 -0.1620411 0.38199997 105 177 1
-0.052736595 -0.17683277 0.38199997 105 177 1
-0.052736595 -0.17770287 0.38199997 105 177 1
-0.052736595 -0.17944306 0.38199997 105 177 1
-0.052725874 -0.18010321 0.38299996 105 177 1
-0.052725874 -0.1809717 0.38299996 105 177 1
-0.052725874 -0.18184017 0.38299996 105 177 1
-0.052725874 -0.18357711 0.38299996 105 177 1
-0.052715153 -0.18422753 0.38399994 105 177 1
-0.052715153 -0.18509437 0.38399994 105 177 1
-0.052715153 -0.18682806 0.38399994 105 177 1
-0.052715153 -0.18769491 0.38399994 105 177 1
-0.052715153 -0.18856175 0.38399994 105 177 1
-0.052715153 -0.1894286 0.38399994 105 177 1
-0.052715153 -0.19116229 0.38399994 105 177 1
-0.052704427 -0.19179642 0.38499999 105 177 1
-0.052704427 -0.19266164 0.38499999 105 177 1
-0.052704427 -0.19439209 0.38499999 105 177 1
-0.052704427 -0.19525729 0.38499999 105 177 1
-0.052704427 -0.19612251 0.38499999 105 177 1
-0.052704427 -0.19698773 0.38499999 105 177 1
-0.052704427 -0.19871818 0.38499999 105 177 1
-0.052704427 -0.1995834 0.38499999 105 177 1
-0.052704427 -0.20044862 0.38499999 105 177 1
-0.052704427 -0.20217904 0.38499999 105 177 1
-0.052704427 -0.20304427 0.38499999 105 177 1
-0.052704427 -0.20390949 0.38499999 105 177 1
-0.052704427 -0.20477471 0.38499999 105 177 1
-0.052715153 -0.2067655 0.38399994 105 177 1
-0.052715153 -0.20763235 0.38399994 105 177 1
-0.052715153 -0.20849919 0.38399994 105 177 1
-0.052715153 -0.21023288 0.38399994 105 177 1
-0.052715153 -0.21109973 0.38399994 105 177 1
-0.052715153 -0.21196657 0.38399994 105 177 1
-0.052715153 -0.21283342 0.38399994 105 177 1
-0.052715153 -0.21456711 0.38399994 105 177 1
-0.052715153 -0.21543396 0.38399994 105 177 1
-0.052715153 -0.2163008 0.38399994 105 177 1
-0.052704427 -0.21775299 0.38499999 105 177 1
-0.051875595 -0.12298928 0.38099998 105 177 1
-0.051866498 -0.12462688 0.38199997 105 177 1
-0.051866498 -0.12549698 0.38199997 105 177 1
-0.051875595 -0.12647618 0.38099998 105 177 1
-0.051875595 -0.12821963 0.38099998 105 177 1
-0.051884692 -0.12920533 0.38 105 177 1
-0.051893786 -0.13019428 0.37899995 105 177 1
-0.051893786 -0.13106926 0.37899995 105 177 1
-0.051902883 -0.1329397 0.37799996 105 177 1
-0.051902883 -0.1338163 0.37799996 105 177 1
-0.051902883 -0.13469291 0.37799996 105 177 1
-0.051902883 -0.1364461 0.37799996 105 177 1
-0.051902883 -0.13732271 0.37799996 105 177 1
-0.051902883 -0.13819931 0.37799996 105 177 1
-0.051902883 -0.13907592 0.37799996 105 177 1
-0.051893786 -0.14069399 0.37899995 105 177 1
-0.051875595 -0.14129549 0.38099998 105 177 1
-0.051857401 -0.14189047 0.38299996 105 177 1
-0.051848307 -0.14348578 0.38399994 105 177 1
-0.051848307 -0.14435264 0.38399994 105 177 1
-0.051848307 -0.14521948 0.38399994 105 177 1
-0.05183921 -0.14593983 0.38499999 105 177 1
-0.05183921 -0.14767027 0.38499999 105 177 1
-0.05183921 -0.14853549 0.38499999 105 177 1
-0.05183921 -0.14940071 0.38499999 105 177 1
-0.05183921 -0.15026592 0.38499999 105 177 1
-0.05183921 -0.15199636 0.38499999 105 177 1
-0.05183921 -0.15286157 0.38499999 105 177 1
-0.05183921 -0.15372679 0.38499999 105 177 1
-0.05183921 -0.15545723 0.38499999 105 177 1
-0.051848307 -0.15648848 0.38399994 105 177 1
-0.051848307 -0.15735531 0.38399994 105 177 1
-0.051848307 -0.15822217 0.38399994 105 177 1
-0.051857401 -0.16012838 0.38299996 105 177 1
-0.051857401 -0.16099685 0.38299996 105 177 1
-0.051866498 -0.1620411 0.38199997 105 177 1
-0.051866498 -0.16378129 0.38199997 105 177 1
-0.051875595 -0.16483206 0.38099998 105 177 1
-0.051875595 -0.16570377 0.38099998 105 177 1
-0.051884692 -0.1667594 0.38 105 177 1
-0.051884692 -0.16850612 0.38 105 177 1
-0.051884692 -0.16937947 0.38 105 177 1
-0.051884692 -0.17025281 0.38 105 177 1
-0.051875595 -0.17180584 0.38099998 105 177 1
-0.051875595 -0.17267758 0.38099998 105 177 1
-0.051875595 -0.17354929 0.38099998 105 177 1
-0.051875595 -0.17442101 0.38099998 105 177 1
-0.051866498 -0.17596267 0.38199997 105 177 1
-0.051866498 -0.17683277 0.38199997 105 177 1
-0.051866498 -0.17770287 0.38199997 105 177 1
-0.051866498 -0.17944306 0.38199997 105 177 1
-0.051866498 -0.18031317 0.38199997 105 177 1
-0.051857401 -0.1809717 0.38299996 105 177 1
-0.051857401 -0.18184017 0.38299996 105 177 1
-0.051857401 -0.18357711 0.38299996 105 177 1
-0.051857401 -0.18444559 0.38299996 105 177 1
-0.051848307 -0.18509437 0.38399994 105 177 1
-0.051848307 -0.18682806 0.38399994 105 177 1
-0.051848307 -0.18769491 0.38399994 105 177 1
-0.051848307 -0.18856175 0.38399994 105 177 1
-0.051848307 -0.1894286 0.38399994 105 177 1
-0.051848307 -0.19116229 0.38399994 105 177 1
-0.051848307 -0.19202913 0.38399994 105 177 1
-0.051848307 -0.19289598 0.38399994 105 177 1
-0.05183921 -0.19439209 0.38499999 105 177 1
-0.05183921 -0.19525729 0.38499999 105 177 1
-0.05183921 -0.19612251 0.38499999 105 177 1
-0.05183921 -0.19698773 0.38499999 105 177 1
-0.05183921 -0.19871818 0.38499999 105 177 1
-0.05183921 -0.1995834 0.38499999 105 177 1
-0.05183921 -0.20044862 0.38499999 105 177 1
-0.05183921 -0.20217904 0.38499999 105 177 1
-0.05183921 -0.20304427 0.38499999 105 177 1
-0.051848307 -0.20416497 0.38399994 105 177 1
-0.051848307 -0.20503181 0.38399994 105 177 1
-0.051848307 -0.2067655 0.38399994 105 177 1
-0.051848307 -0.20763235 0.38399994 105 177 1
-0.051848307 -0.20849919 0.38399994 105 177 1
-0.051848307 -0.21023288 0.38399994 105 177 1
-0.051848307 -0.21109973 0.38399994 105 177 1
-0.051848307 -0.21196657 0.38399994 105 177 1
-0.051848307 -0.21283342 0.38399994 105 177 1
-0.051848307 -0.21456711 0.38399994 105 177 1
-0.051848307 -0.21543396 0.38399994 105 177 1
-0.051848307 -0.2163008 0.38399994 105 177 1
-0.050854471 -0.10918868 0.40099996 105 177 1
-0.05089929 -0.11136553 0.39499998 105 177 1
-0.050839532 -0.11153687 0.403 105 177 1
-0.050787244 -0.11259307 0.40999997 105 177 1
-0.05100387 -0.11863066 0.38099998 105 177 1
-0.051018812 -0.12056953 0.37899995 105 177 1
-0.051018812 -0.12144451 0.37899995 105 177 1
-0.051011339 -0.12221852 0.38 105 177 1
-0.0509964 -0.12288669 0.38199997 105 177 1
-0.050988931 -0.12452104 0.38299996 105 177 1
-0.050988931 -0.12538952 0.38299996 105 177 1
-0.050988931 -0.12625799 0.38299996 105 177 1
-0.050988931 -0.12799492 0.38299996 105 177 1
-0.05100387 -0.12909135 0.38099998 105 177 1
-0.051011339 -0.13007867 0.38 105 177 1
-0.051018812 -0.13106926 0.37899995 105 177 1
-0.051018812 -0.13281921 0.37899995 105 177 1
-0.051026281 -0.1338163 0.37799996 105 177 1
-0.051026281 -0.13469291 0.37799996 105 177 1
-0.051026281 -0.1364461 0.37799996 105 177 1
-0.051026281 -0.13732271 0.37799996 105 177 1
-0.051026281 -0.13819931 0.37799996 105 177 1
-0.051026281 -0.13907592 0.37799996 105 177 1
-0.051018812 -0.14069399 0.37899995 105 177 1
-0.05100387 -0.14129549 0.38099998 105 177 1
-0.050988931 -0.14189047 0.38299996 105 177 1
-0.050981462 -0.14348578 0.38399994 105 177 1
-0.050981462 -0.14435264 0.38399994 105 177 1
-0.050973989 -0.14507461 0.38499999 105 177 1
-0.050973989 -0.14593983 0.38499999 105 177 1
-0.050973989 -0.14767027 0.38499999 105 177 1
-0.050973989 -0.14853549 0.38499999 105 177 1
-0.050973989 -0.14940071 0.38499999 105 177 1
-0.050973989 -0.15026592 0.38499999 105 177 1
-0.050973989 -0.15199636 0.38499999 105 177 1
-0.050973989 -0.15286157 0.38499999 105 177 1
-0.050973989 -0.15372679 0.38499999 105 177 1
-0.050973989 -0.15545723 0.38499999 105 177 1
-0.050981462 -0.15648848 0.38399994 105 177 1
-0.050981462 -0.15735531 0.38399994 105 177 1
-0.050981462 -0.15822217 0.38399994 105 177 1
-0.050988931 -0.16012838 0.38299996 105 177 1
-0.050988931 -0.16099685 0.38299996 105 177 1
-0.050988931 -0.16186532 0.38299996 105 177 1
-0.0509964 -0.16378129 0.38199997 105 177 1
-0.0509964 -0.16465139 0.38199997 105 177 1
-0.05100387 -0.16570377 0.38099998 105 177 1
-0.05100387 -0.16657549 0.38099998 105 177 1
-0.05100387 -0.16831896 0.38099998 105 177 1
-0.05100387 -0.16919068 0.38099998 105 177 1
-0.05100387 -0.17006239 0.38099998 105 177 1
-0.05100387 -0.17180584 0.38099998 105 177 1
-0.05100387 -0.17267758 0.38099998 105 177 1
-0.05100387 -0.17354929 0.38099998 105 177 1
-0.05100387 -0.17442101 0.38099998 105 177 1
-0.05100387 -0.17616446 0.38099998 105 177 1
-0.0509964 -0.17683277 0.38199997 105 177 1
-0.0509964 -0.17770287 0.38199997 105 177 1
-0.0509964 -0.17944306 0.38199997 105 177 1
-0.0509964 -0.18031317 0.38199997 105 177 1
-0.0509964 -0.18118325 0.38199997 105 177 1
-0.050988931 -0.18184017 0.38299996 105 177 1
-0.050988931 -0.18357711 0.38299996 105 177 1
-0.050988931 -0.18444559 0.38299996 105 177 1
-0.050988931 -0.18531406 0.38299996 105 177 1
-0.050988931 -0.187051 0.38299996 105 177 1
-0.050988931 -0.18791947 0.38299996 105 177 1
-0.050981462 -0.18856175 0.38399994 105 177 1
-0.050981462 -0.1894286 0.38399994 105 177 1
-0.050981462 -0.19116229 0.38399994 105 177 1
-0.050981462 -0.19202913 0.38399994 105 177 1
-0.050981462 -0.19289598 0.38399994 105 177 1
-0.050981462 -0.19462967 0.38399994 105 177 1
-0.050973989 -0.19525729 0.38499999 105 177 1
-0.050973989 -0.19612251 0.38499999 105 177 1
-0.050973989 -0.19698773 0.38499999 105 177 1
-0.050973989 -0.19871818 0.38499999 105 177 1
-0.050973989 -0.1995834 0.38499999 105 177 1
-0.050981462 -0.20069759 0.38399994 105 177 1
-0.050981462 -0.20243128 0.38399994 105 177 1
-0.050981462 -0.20329812 0.38399994 105 177 1
-0.050981462 -0.20416497 0.38399994 105 177 1
-0.050981462 -0.20503181 0.38399994 105 177 1
-0.050981462 -0.2067655 0.38399994 105 177 1
-0.050981462 -0.20763235 0.38399994 105 177 1
-0.050981462 -0.20849919 0.38399994 105 177 1
-0.050981462 -0.21023288 0.38399994 105 177 1
-0.050981462 -0.21109973 0.38399994 105 177 1
-0.050981462 -0.21196657 0.38399994 105 177 1
-0.050981462 -0.21283342 0.38399994 105 177 1
-0.050981462 -0.21456711 0.38399994 105 177 1
-0.050981462 -0.21543396 0.38399994 105 177 1
-0.050981462 -0.2163008 0.38399994 105 177 1
-0.050026961 -0.10850587 0.39899999 105 177 1
-0.050015274 -0.10918868 0.40099996 105 177 1
-0.050009429 -0.11329671 0.40199995 105 177 1
-0.050126303 -0.12897737 0.38199997 105 177 1
-0.050132144 -0.12996307 0.38099998 105 177 1
-0.050137989 -0.13095203 0.38 105 177 1
-0.050143834 -0.13281921 0.37899995 105 177 1
-0.050149675 -0.1338163 0.37799996 105 177 1
-0.050149675 -0.13469291 0.37799996 105 177 1
-0.050149675 -0.1364461 0.37799996 105 177 1
-0.050149675 -0.13732271 0.37799996 105 177 1
-0.050149675 -0.13819931 0.37799996 105 177 1
-0.050149675 -0.13907592 0.37799996 105 177 1
-0.050143834 -0.14069399 0.37899995 105 177 1
-0.050132144 -0.14129549 0.38099998 105 177 1
-0.050120458 -0.14189047 0.38299996 105 177 1
-0.050114617 -0.14348578 0.38399994 105 177 1
-0.050114617 -0.14435264 0.38399994 105 177 1
-0.050114617 -0.14521948 0.38399994 105 177 1
-0.050114617 -0.15648848 0.38399994 105 177 1
-0.050114617 -0.15735531 0.38399994 105 177 1
-0.050114617 -0.15822217 0.38399994 105 177 1
-0.050114617 -0.15995586 0.38399994 105 177 1
-0.050120458 -0.16099685 0.38299996 105 177 1
-0.050120458 -0.16186532 0.38299996 105 177 1
-0.050120458 -0.16360226 0.38299996 105 177 1
-0.050126303 -0.16465139 0.38199997 105 177 1
-0.050126303 -0.16552149 0.38199997 105 177 1
-0.050132144 -0.16657549 0.38099998 105 177 1
-0.050132144 -0.16831896 0.38099998 105 177 1
-0.050132144 -0.16919068 0.38099998 105 177 1
-0.050132144 -0.17006239 0.38099998 105 177 1
-0.050132144 -0.17180584 0.38099998 105 177 1
-0.050132144 -0.17267758 0.38099998 105 177 1
-0.050132144 -0.17354929 0.38099998 105 177 1
-0.050132144 -0.17442101 0.38099998 105 177 1
-0.050132144 -0.17616446 0.38099998 105 177 1
-0.050126303 -0.17683277 0.38199997 105 177 1
-0.050126303 -0.17770287 0.38199997 105 177 1
-0.050126303 -0.17944306 0.38199997 105 177 1
-0.050126303 -0.18031317 0.38199997 105 177 1
-0.050126303 -0.18118325 0.38199997 105 177 1
-0.050120458 -0.18184017 0.38299996 105 177 1
-0.050120458 -0.18357711 0.38299996 105 177 1
-0.050120458 -0.18444559 0.38299996 105 177 1
-0.050120458 -0.18531406 0.38299996 105 177 1
-0.050120458 -0.187051 0.38299996 105 177 1
-0.050120458 -0.18791947 0.38299996 105 177 1
-0.050120458 -0.18878794 0.38299996 105 177 1
-0.050120458 -0.18965641 0.38299996 105 177 1
-0.050120458 -0.19139335 0.38299996 105 177 1
-0.050114617 -0.19202913 0.38399994 105 177 1
-0.050114617 -0.19289598 0.38399994 105 177 1
-0.050114617 -0.19462967 0.38399994 105 177 1
-0.050114617 -0.19549651 0.38399994 105 177 1
-0.050114617 -0.19636336 0.38399994 105 177 1
-0.050114617 -0.1972302 0.38399994 105 177 1
-0.050114617 -0.1989639 0.38399994 105 177 1
-0.050114617 -0.19983074 0.38399994 105 177 1
-0.050114617 -0.20069759 0.38399994 105 177 1
-0.050114617 -0.20243128 0.38399994 105 177 1
-0.050114617 -0.20329812 0.38399994 105 177 1
-0.050114617 -0.20416497 0.38399994 105 177 1
-0.050114617 -0.20503181 0.38399994 105 177 1
-0.050114617 -0.2067655 0.38399994 105 177 1
-0.050120458 -0.20789431 0.38299996 105 177 1
-0.050120458 -0.20876278 0.38299996 105 177 1
-0.050120458 -0.21049973 0.38299996 105 177 1
-0.050120458 -0.2113682 0.38299996 105 177 1
-0.050120458 -0.21223667 0.38299996 105 177 1
-0.050114617 -0.21283342 0.38399994 105 177 1
-0.050114617 -0.21456711 0.38399994 105 177 1
-0.050114617 -0.21543396 0.38399994 105 177 1
-0.050114617 -0.2163008 0.38399994 105 177 1
-0.049214032 -0.10905325 0.39199996 105 177 1
-0.049214032 -0.10990709 0.39199996 105 177 1
-0.049218249 -0.11169784 0.39099997 105 177 1
-0.049218249 -0.1125533 0.39099997 105 177 1
-0.049150772 -0.1120275 0.40699995 105 177 1
-0.049222466 -0.11435217 0.38999999 105 177 1
-0.049226683 -0.11615755 0.389 105 177 1
-0.049235117 -0.11720193 0.38699996 105 177 1
-0.049239337 -0.11815836 0.38599998 105 177 1
-0.049235117 -0.11978783 0.38699996 105 177 1
-0.049243554 -0.12084848 0.38499999 105 177 1
-0.049235117 -0.12151176 0.38699996 105 177 1
-0.049243554 -0.12257892 0.38499999 105 177 1
-0.049243554 -0.12430935 0.38499999 105 177 1
-0.049243554 -0.12517457 0.38499999 105 177 1
-0.049243554 -0.12603979 0.38499999 105 177 1
-0.049239337 -0.12765788 0.38599998 105 177 1
-0.049268857 -0.13281921 0.37899995 105 177 1
-0.049268857 -0.13369419 0.37899995 105 177 1
-0.049268857 -0.13456917 0.37899995 105 177 1
-0.049273074 -0.1364461 0.37799996 105 177 1
-0.049273074 -0.13732271 0.37799996 105 177 1
-0.049268857 -0.13806906 0.37899995 105 177 1
-0.049268857 -0.13894406 0.37899995 105 177 1
-0.049243554 -0.14593983 0.38499999 105 177 1
-0.049243554 -0.14767027 0.38499999 105 177 1
-0.049243554 -0.14853549 0.38499999 105 177 1
-0.049243554 -0.14940071 0.38499999 105 177 1
-0.049243554 -0.15026592 0.38499999 105 177 1
-0.049243554 -0.15199636 0.38499999 105 177 1
-0.049243554 -0.15286157 0.38499999 105 177 1
-0.049243554 -0.15372679 0.38499999 105 177 1
-0.049243554 -0.15545723 0.38499999 105 177 1
-0.048362788 -0.082612164 0.39099997 105 177 1
-0.048362788 -0.083467625 0.39099997 105 177 1
-0.048362788 -0.085178547 0.39099997 105 177 1
-0.048362788 -0.086034007 0.39099997 105 177 1
-0.048360199 -0.086853556 0.39199996 105 177 1
-0.048360199 -0.090268895 0.39199996 105 177 1
-0.048360199 -0.091122732 0.39199996 105 177 1
-0.048357606 -0.092783101 0.39299995 105 177 1
-0.048357606 -0.097896352 0.39299995 105 177 1
-0.048347242 -0.10105094 0.39699996 105 177 1
-0.048349835 -0.10450382 0.39599997 105 177 1
-0.048360199 -0.10563791 0.39199996 105 177 1
-0.048365381 -0.10663839 0.38999999 105 177 1
-0.048360199 -0.10819942 0.39199996 105 177 1
-0.048360199 -0.10905325 0.39199996 105 177 1
-0.048360199 -0.10990709 0.39199996 105 177 1
-0.048362788 -0.11169784 0.39099997 105 177 1
-0.048362788 -0.1125533 0.39099997 105 177 1
-0.048365381 -0.11349508 0.38999999 105 177 1
-0.048365381 -0.11435217 0.38999999 105 177 1
-0.048365381 -0.11606634 0.38999999 105 177 1
-0.04836797 -0.11701626 0.389 105 177 1
-0.04836797 -0.11787498 0.389 105 177 1
-0.048373152 -0.11978783 0.38699996 105 177 1
-0.048375744 -0.12074913 0.38599998 105 177 1
-0.048373152 -0.12151176 0.38699996 105 177 1
-0.048373152 -0.12237373 0.38699996 105 177 1
-0.048373152 -0.12409766 0.38699996 105 177 1
-0.048373152 -0.12495963 0.38699996 105 177 1
-0.048375744 -0.1259307 0.38599998 105 177 1
-0.048378333 -0.12777023 0.38499999 105 177 1
-0.048380926 -0.12874943 0.38399994 105 177 1
-0.048386108 -0.12984747 0.38199997 105 177 1
-0.048391286 -0.13095203 0.38 105 177 1
-0.048391286 -0.1405589 0.38 105 177 1
-0.048388697 -0.14129549 0.38099998 105 177 1
-0.048383515 -0.14189047 0.38299996 105 177 1
-0.048380926 -0.14348578 0.38399994 105 177 1
-0.048380926 -0.14435264 0.38399994 105 177 1
-0.048378333 -0.14507461 0.38499999 105 177 1
-0.048378333 -0.14593983 0.38499999 105 177 1
-0.048378333 -0.14767027 0.38499999 105 177 1
-0.048378333 -0.14853549 0.38499999 105 177 1
-0.048378333 -0.14940071 0.38499999 105 177 1
-0.048378333 -0.15026592 0.38499999 105 177 1
-0.048378333 -0.15199636 0.38499999 105 177 1
-0.048378333 -0.15286157 0.38499999 105 177 1
-0.048378333 -0.15372679 0.38499999 105 177 1
-0.048378333 -0.15545723 0.38499999 105 177 1
-0.048380926 -0.15648848 0.38399994 105 177 1
-0.048380926 -0.15735531 0.38399994 105 177 1
-0.048380926 -0.15822217 0.38399994 105 177 1
-0.048380926 -0.15995586 0.38399994 105 177 1
-0.048383515 -0.16099685 0.38299996 105 177 1
-0.048383515 -0.16186532 0.38299996 105 177 1
-0.048383515 -0.16360226 0.38299996 105 177 1
-0.048386108 -0.16465139 0.38199997 105 177 1
-0.048386108 -0.16552149 0.38199997 105 177 1
-0.048386108 -0.16639158 0.38199997 105 177 1
-0.048388697 -0.16831896 0.38099998 105 177 1
-0.048388697 -0.16919068 0.38099998 105 177 1
-0.048388697 -0.17006239 0.38099998 105 177 1
-0.048388697 -0.17180584 0.38099998 105 177 1
-0.048388697 -0.17267758 0.38099998 105 177 1
-0.048388697 -0.17354929 0.38099998 105 177 1
-0.048388697 -0.17442101 0.38099998 105 177 1
-0.048388697 -0.17616446 0.38099998 105 177 1
-0.048388697 -0.1770362 0.38099998 105 177 1
-0.048388697 -0.17790791 0.38099998 105 177 1
-0.048386108 -0.17944306 0.38199997 105 177 1
-0.048386108 -0.18031317 0.38199997 105 177 1
-0.048386108 -0.18118325 0.38199997 105 177 1
-0.048386108 -0.18205336 0.38199997 105 177 1
-0.048386108 -0.18379354 0.38199997 105 177 1
-0.048386108 -0.18466365 0.38199997 105 177 1
-0.048386108 -0.18553375 0.38199997 105 177 1
-0.048386108 -0.18727395 0.38199997 105 177 1
-0.048386108 -0.18814404 0.38199997 105 177 1
-0.048386108 -0.18901414 0.38199997 105 177 1
-0.048383515 -0.18965641 0.38299996 105 177 1
-0.048383515 -0.19139335 0.38299996 105 177 1
-0.048383515 -0.19226182 0.38299996 105 177 1
-0.048383515 -0.1931303 0.38299996 105 177 1
-0.048380926 -0.19462967 0.38399994 105 177 1
-0.048380926 -0.19549651 0.38399994 105 177 1
-0.048380926 -0.19636336 0.38399994 105 177 1
-0.048380926 -0.1972302 0.38399994 105 177 1
-0.048380926 -0.1989639 0.38399994 105 177 1
-0.048380926 -0.19983074 0.38399994 105 177 1
-0.048380926 -0.20069759 0.38399994 105 177 1
-0.048380926 -0.20243128 0.38399994 105 177 1
-0.048380926 -0.20329812 0.38399994 105 177 1
-0.048383515 -0.20442043 0.38299996 105 177 1
-0.048383515 -0.2052889 0.38299996 105 177 1
-0.048383515 -0.20702584 0.38299996 105 177 1
-0.048383515 -0.20789431 0.38299996 105 177 1
-0.048386108 -0.2090264 0.38199997 105 177 1
-0.048386108 -0.21076658 0.38199997 105 177 1
-0.048386108 -0.21163669 0.38199997 105 177 1
-0.048386108 -0.21250679 0.38199997 105 177 1
-0.048383515 -0.21310514 0.38299996 105 177 1
-0.048383515 -0.21484208 0.38299996 105 177 1
-0.048380926 -0.21543396 0.38399994 105 177 1
-0.048380926 -0.2163008 0.38399994 105 177 1
-0.047519866 -0.061058216 0.37799996 105 177 1
-0.047508292 -0.078354508 0.38999999 105 177 1
-0.047508292 -0.079211593 0.38999999 105 177 1
-0.047508292 -0.08092577 0.38999999 105 177 1
-0.047507327 -0.081756704 0.39099997 105 177 1
-0.047507327 -0.082612164 0.39099997 105 177 1
-0.047507327 -0.083467625 0.39099997 105 177 1
-0.047507327 -0.085178547 0.39099997 105 177 1
-0.047507327 -0.086034007 0.39099997 105 177 1
-0.047506362 -0.086853556 0.39199996 105 177 1
-0.047506362 -0.088561222 0.39199996 105 177 1
-0.047506362 -0.089415058 0.39199996 105 177 1
-0.047496717 -0.10157072 0.40199995 105 177 1
-0.047496717 -0.10324585 0.40199995 105 177 1
-0.047506362 -0.10478408 0.39199996 105 177 1
-0.047508292 -0.10578129 0.38999999 105 177 1
-0.047508292 -0.10663839 0.38999999 105 177 1
-0.047506362 -0.10819942 0.39199996 105 177 1
-0.047506362 -0.10905325 0.39199996 105 177 1
-0.047507327 -0.10998691 0.39099997 105 177 1
-0.047507327 -0.11169784 0.39099997 105 177 1
-0.047507327 -0.1125533 0.39099997 105 177 1
-0.047507327 -0.11340876 0.39099997 105 177 1
-0.047508292 -0.11435217 0.38999999 105 177 1
-0.047508292 -0.11606634 0.38999999 105 177 1
-0.047508292 -0.11692343 0.38999999 105 177 1
-0.047509257 -0.11787498 0.389 105 177 1
-0.047509257 -0.11959241 0.389 105 177 1
-0.047510222 -0.12055045 0.38799995 105 177 1
-0.047510222 -0.1214108 0.38799995 105 177 1
-0.047510222 -0.12227114 0.38799995 105 177 1
-0.047510222 -0.12399182 0.38799995 105 177 1
-0.047511186 -0.12495963 0.38699996 105 177 1
-0.047511186 -0.12582159 0.38699996 105 177 1
-0.047512151 -0.12765788 0.38599998 105 177 1
-0.047513116 -0.12863545 0.38499999 105 177 1
-0.047515042 -0.12973186 0.38299996 105 177 1
-0.047516972 -0.1308348 0.38099998 105 177 1
-0.047518902 -0.13281921 0.37899995 105 177 1
-0.047518902 -0.13369419 0.37899995 105 177 1
-0.047518902 -0.13456917 0.37899995 105 177 1
-0.047518902 -0.13631912 0.37899995 105 177 1
-0.047518902 -0.1371941 0.37899995 105 177 1
-0.047518902 -0.13806906 0.37899995 105 177 1
-0.047518902 -0.13894406 0.37899995 105 177 1
-0.047517937 -0.1405589 0.38 105 177 1
-0.047516007 -0.14115874 0.38199997 105 177 1
-0.047515042 -0.14189047 0.38299996 105 177 1
-0.047514081 -0.14348578 0.38399994 105 177 1
-0.047513116 -0.14420938 0.38499999 105 177 1
-0.047513116 -0.14507461 0.38499999 105 177 1
-0.047513116 -0.14593983 0.38499999 105 177 1
-0.047513116 -0.14767027 0.38499999 105 177 1
-0.047513116 -0.14853549 0.38499999 105 177 1
-0.047513116 -0.14940071 0.38499999 105 177 1
-0.047513116 -0.15026592 0.38499999 105 177 1
-0.047513116 -0.15199636 0.38499999 105 177 1
-0.047513116 -0.15286157 0.38499999 105 177 1
-0.047513116 -0.15372679 0.38499999 105 177 1
-0.047513116 -0.15545723 0.38499999 105 177 1
-0.047514081 -0.15648848 0.38399994 105 177 1
-0.047514081 -0.15735531 0.38399994 105 177 1
-0.047514081 -0.15822217 0.38399994 105 177 1
-0.047514081 -0.15995586 0.38399994 105 177 1
-0.047515042 -0.16099685 0.38299996 105 177 1
-0.047515042 -0.16186532 0.38299996 105 177 1
-0.047515042 -0.16360226 0.38299996 105 177 1
-0.047515042 -0.16447073 0.38299996 105 177 1
-0.047516007 -0.16552149 0.38199997 105 177 1
-0.047516007 -0.16639158 0.38199997 105 177 1
-0.047516007 -0.16813178 0.38199997 105 177 1
-0.047516972 -0.16919068 0.38099998 105 177 1
-0.047516972 -0.17006239 0.38099998 105 177 1
-0.047516972 -0.17180584 0.38099998 105 177 1
-0.047516972 -0.17267758 0.38099998 105 177 1
-0.047516972 -0.17354929 0.38099998 105 177 1
-0.047516972 -0.17442101 0.38099998 105 177 1
-0.047516972 -0.17616446 0.38099998 105 177 1
-0.047516972 -0.1770362 0.38099998 105 177 1
-0.047516972 -0.17790791 0.38099998 105 177 1
-0.047516972 -0.17965136 0.38099998 105 177 1
-0.047516972 -0.1805231 0.38099998 105 177 1
-0.047516972 -0.18139482 0.38099998 105 177 1
-0.047516972 -0.18226653 0.38099998 105 177 1
-0.047516972 -0.18400998 0.38099998 105 177 1
-0.047516972 -0.18488172 0.38099998 105 177 1
-0.047516972 -0.18575343 0.38099998 105 177 1
-0.047516972 -0.18749689 0.38099998 105 177 1
-0.047516972 -0.1883686 0.38099998 105 177 1
-0.047516007 -0.18901414 0.38199997 105 177 1
-0.047516007 -0.18988425 0.38199997 105 177 1
-0.047516007 -0.19162443 0.38199997 105 177 1
-0.047516007 -0.19249454 0.38199997 105 177 1
-0.047515042 -0.1931303 0.38299996 105 177 1
-0.047515042 -0.19486724 0.38299996 105 177 1
-0.047515042 -0.19573571 0.38299996 105 177 1
-0.047515042 -0.19660418 0.38299996 105 177 1
-0.047515042 -0.19747266 0.38299996 105 177 1
-0.047515042 -0.1992096 0.38299996 105 177 1
-0.047515042 -0.20007807 0.38299996 105 177 1
-0.047515042 -0.20094654 0.38299996 105 177 1
-0.047515042 -0.20268348 0.38299996 105 177 1
-0.047515042 -0.20355196 0.38299996 105 177 1
-0.047515042 -0.20442043 0.38299996 105 177 1
-0.047515042 -0.2052889 0.38299996 105 177 1
-0.047516007 -0.20728619 0.38199997 105 177 1
-0.047516007 -0.2081563 0.38199997 105 177 1
-0.047516972 -0.20929 0.38099998 105 177 1
-0.047516972 -0.21103343 0.38099998 105 177 1
-0.047516972 -0.21190517 0.38099998 105 177 1
-0.047516972 -0.21277688 0.38099998 105 177 1
-0.047516972 -0.21364862 0.38099998 105 177 1
-0.047516007 -0.21511708 0.38199997 105 177 1
-0.047515042 -0.21571057 0.38299996 105 177 1
-0.047515042 -0.21657903 0.38299996 105 177 1
-0.04664591 -0.059369534 0.38199997 105 177 1
-0.046643265 -0.061058216 0.37799996 105 177 1
-0.046640616 -0.061889809 0.37399995 105 177 1
-0.046643924 -0.062821046 0.37899995 105 177 1
-0.046643924 -0.063696027 0.37899995 105 177 1
-0.046646573 -0.066333443 0.38299996 105 177 1
-0.046647236 -0.06720341 0.38399994 105 177 1
-0.046647895 -0.068070121 0.38499999 105 177 1
-0.046647895 -0.069800556 0.38499999 105 177 1
-0.046647895 -0.070665777 0.38499999 105 177 1
-0.046653192 -0.090226479 0.39299995 105 177 1
-0.046653852 -0.091034643 0.39399999 105 177 1
-0.046653192 -0.092783101 0.39299995 105 177 1
-0.046653192 -0.093635306 0.39299995 105 177 1
-0.046653852 -0.094436973 0.39399999 105 177 1
-0.046654515 -0.096084334 0.39499998 105 177 1
-0.046654515 -0.09693329 0.39499998 105 177 1
-0.046655178 -0.097725183 0.39599997 105 177 1
-0.046655178 -0.098572515 0.39599997 105 177 1
-0.046655178 -0.10026717 0.39599997 105 177 1
-0.046655178 -0.1011145 0.39599997 105 177 1
-0.046655178 -0.10196184 0.39599997 105 177 1
-0.046653192 -0.10386181 0.39299995 105 177 1
-0.046649221 -0.12754552 0.38699996 105 177 1
-0.046648558 -0.12852147 0.38599998 105 177 1
-0.046647236 -0.12961626 0.38399994 105 177 1
-0.04664525 -0.1308348 0.38099998 105 177 1
-0.046644587 -0.13269873 0.38 105 177 1
-0.046643924 -0.13369419 0.37899995 105 177 1
-0.046643924 -0.13456917 0.37899995 105 177 1
-0.046643924 -0.13631912 0.37899995 105 177 1
-0.046643924 -0.1371941 0.37899995 105 177 1
-0.046643924 -0.13806906 0.37899995 105 177 1
-0.046644587 -0.13881218 0.38 105 177 1
-0.04664525 -0.14042377 0.38099998 105 177 1
-0.04664591 -0.14115874 0.38199997 105 177 1
-0.046646573 -0.14189047 0.38299996 105 177 1
-0.046647236 -0.14348578 0.38399994 105 177 1
-0.046647895 -0.14420938 0.38499999 105 177 1
-0.046647895 -0.14507461 0.38499999 105 177 1
-0.046647895 -0.14593983 0.38499999 105 177 1
-0.046647895 -0.14767027 0.38499999 105 177 1
-0.046647895 -0.14853549 0.38499999 105 177 1
-0.046647895 -0.14940071 0.38499999 105 177 1
-0.046647895 -0.15026592 0.38499999 105 177 1
-0.046647895 -0.15199636 0.38499999 105 177 1
-0.046647895 -0.15286157 0.38499999 105 177 1
-0.046647895 -0.15372679 0.38499999 105 177 1
-0.046647895 -0.15545723 0.38499999 105 177 1
-0.046647236 -0.15648848 0.38399994 105 177 1
-0.046647236 -0.15735531 0.38399994 105 177 1
-0.046647236 -0.15822217 0.38399994 105 177 1
-0.046647236 -0.15995586 0.38399994 105 177 1
-0.046646573 -0.16099685 0.38299996 105 177 1
-0.046646573 -0.16186532 0.38299996 105 177 1
-0.046646573 -0.16360226 0.38299996 105 177 1
-0.046646573 -0.16447073 0.38299996 105 177 1
-0.04664591 -0.16552149 0.38199997 105 177 1
-0.04664591 -0.16639158 0.38199997 105 177 1
-0.04664591 -0.16813178 0.38199997 105 177 1
-0.04664591 -0.16900188 0.38199997 105 177 1
-0.04664525 -0.17006239 0.38099998 105 177 1
-0.04664525 -0.17180584 0.38099998 105 177 1
-0.04664525 -0.17267758 0.38099998 105 177 1
-0.04664525 -0.17354929 0.38099998 105 177 1
-0.04664525 -0.17442101 0.38099998 105 177 1
-0.04664525 -0.17616446 0.38099998 105 177 1
-0.04664525 -0.1770362 0.38099998 105 177 1
-0.04664525 -0.17790791 0.38099998 105 177 1
-0.04664525 -0.17965136 0.38099998 105 177 1
-0.04664525 -0.1805231 0.38099998 105 177 1
-0.04664525 -0.18139482 0.38099998 105 177 1
-0.046644587 -0.18247971 0.38 105 177 1
-0.046644587 -0.18422642 0.38 105 177 1
-0.046644587 -0.18509977 0.38 105 177 1
-0.046644587 -0.18597311 0.38 105 177 1
-0.046644587 -0.18771982 0.38 105 177 1
-0.046644587 -0.18859318 0.38 105 177 1
-0.04664525 -0.18924034 0.38099998 105 177 1
-0.04664525 -0.19011205 0.38099998 105 177 1
-0.04664525 -0.19185551 0.38099998 105 177 1
-0.04664591 -0.19249454 0.38199997 105 177 1
-0.04664591 -0.19336464 0.38199997 105 177 1
-0.04664591 -0.19510482 0.38199997 105 177 1
-0.046646573 -0.19573571 0.38299996 105 177 1
-0.046646573 -0.19660418 0.38299996 105 177 1
-0.046646573 -0.19747266 0.38299996 105 177 1
-0.046646573 -0.1992096 0.38299996 105 177 1
-0.046646573 -0.20007807 0.38299996 105 177 1
-0.046646573 -0.20094654 0.38299996 105 177 1
-0.046646573 -0.20268348 0.38299996 105 177 1
-0.04664591 -0.2038058 0.38199997 105 177 1
-0.04664591 -0.2046759 0.38199997 105 177 1
-0.04664591 -0.20554601 0.38199997 105 177 1
-0.04664525 -0.20754655 0.38099998 105 177 1
-0.046644587 -0.20868024 0.38 105 177 1
-0.046643924 -0.2098172 0.37899995 105 177 1
-0.046643924 -0.21156715 0.37899995 105 177 1
-0.046643924 -0.21244213 0.37899995 105 177 1
-0.046643924 -0.21331711 0.37899995 105 177 1
-0.046644587 -0.21392034 0.38 105 177 1
-0.04664525 -0.21539207 0.38099998 105 177 1
-0.04664591 -0.21598718 0.38199997 105 177 1
-0.04664591 -0.21685728 0.38199997 105 177 1
-0.045775812 -0.061109733 0.38199997 105 177 1
-0.045773525 -0.061968576 0.38099998 105 177 1
-0.045771237 -0.062830672 0.38 105 177 1
-0.045766659 -0.063688025 0.37799996 105 177 1
-0.04578954 -0.071511082 0.38799995 105 177 1
-0.045791831 -0.073221877 0.389 105 177 1
-0.04578954 -0.074092105 0.38799995 105 177 1
-0.045791831 -0.074939303 0.389 105 177 1
-0.045791831 -0.075798012 0.389 105 177 1
-0.045794118 -0.077497423 0.38999999 105 177 1
-0.045794118 -0.078354508 0.38999999 105 177 1
-0.045794118 -0.079211593 0.38999999 105 177 1
-0.045796406 -0.080901243 0.39099997 105 177 1
-0.045796406 -0.081756704 0.39099997 105 177 1
-0.045796406 -0.082612164 0.39099997 105 177 1
-0.045796406 -0.083467625 0.39099997 105 177 1
-0.045796406 -0.085178547 0.39099997 105 177 1
-0.045796406 -0.086034007 0.39099997 105 177 1
-0.045798693 -0.086853556 0.39199996 105 177 1
-0.045798693 -0.088561222 0.39199996 105 177 1
-0.045798693 -0.089415058 0.39199996 105 177 1
-0.045798693 -0.090268895 0.39199996 105 177 1
-0.045798693 -0.091122732 0.39199996 105 177 1
-0.045798693 -0.092830397 0.39199996 105 177 1
-0.045800984 -0.093635306 0.39299995 105 177 1
-0.045800984 -0.094487518 0.39299995 105 177 1
-0.045803271 -0.096138135 0.39399999 105 177 1
-0.045803271 -0.096988715 0.39399999 105 177 1
-0.045803271 -0.097839296 0.39399999 105 177 1
-0.045803271 -0.098689876 0.39399999 105 177 1
-0.045803271 -0.10039105 0.39399999 105 177 1
-0.045803271 -0.10124162 0.39399999 105 177 1
-0.045803271 -0.10209221 0.39399999 105 177 1
-0.045800984 -0.10386181 0.39299995 105 177 1
-0.045800984 -0.10471402 0.39299995 105 177 1
-0.045798693 -0.10563791 0.39199996 105 177 1
-0.045798693 -0.10649174 0.39199996 105 177 1
-0.045798693 -0.10819942 0.39199996 105 177 1
-0.045798693 -0.10905325 0.39199996 105 177 1
-0.045796406 -0.10998691 0.39099997 105 177 1
-0.045796406 -0.11169784 0.39099997 105 177 1
-0.045796406 -0.1125533 0.39099997 105 177 1
-0.045796406 -0.11340876 0.39099997 105 177 1
-0.045794118 -0.11435217 0.38999999 105 177 1
-0.045794118 -0.11606634 0.38999999 105 177 1
-0.045794118 -0.11692343 0.38999999 105 177 1
-0.045794118 -0.11778052 0.38999999 105 177 1
-0.045791831 -0.11959241 0.389 105 177 1
-0.045791831 -0.12045112 0.389 105 177 1
-0.04578954 -0.1214108 0.38799995 105 177 1
-0.04578954 -0.12227114 0.38799995 105 177 1
-0.04578954 -0.12399182 0.38799995 105 177 1
-0.04578954 -0.12485216 0.38799995 105 177 1
-0.04578954 -0.1257125 0.38799995 105 177 1
-0.045775812 -0.13071758 0.38199997 105 177 1
-0.045771237 -0.13269873 0.38 105 177 1
-0.045771237 -0.13357209 0.38 105 177 1
-0.045768946 -0.13456917 0.37899995 105 177 1
-0.045768946 -0.13631912 0.37899995 105 177 1
-0.045771237 -0.13706549 0.38 105 177 1
-0.045771237 -0.13793883 0.38 105 177 1
-0.045773525 -0.13868031 0.38099998 105 177 1
-0.045773525 -0.14042377 0.38099998 105 177 1
-0.045775812 -0.16900188 0.38199997 105 177 1
-0.045775812 -0.16987199 0.38199997 105 177 1
-0.045773525 -0.17180584 0.38099998 105 177 1
-0.045773525 -0.17267758 0.38099998 105 177 1
-0.045773525 -0.17354929 0.38099998 105 177 1
-0.045773525 -0.17442101 0.38099998 105 177 1
-0.045773525 -0.17616446 0.38099998 105 177 1
-0.045773525 -0.1770362 0.38099998 105 177 1
-0.045773525 -0.17790791 0.38099998 105 177 1
-0.045771237 -0.17985967 0.38 105 177 1
-0.045771237 -0.18073303 0.38 105 177 1
-0.045771237 -0.18160637 0.38 105 177 1
-0.045771237 -0.18247971 0.38 105 177 1
-0.045768946 -0.18444286 0.37899995 105 177 1
-0.045768946 -0.18531784 0.37899995 105 177 1
-0.045768946 -0.18619281 0.37899995 105 177 1
-0.045768946 -0.18794277 0.37899995 105 177 1
-0.045768946 -0.18881774 0.37899995 105 177 1
-0.045771237 -0.18946652 0.38 105 177 1
-0.045771237 -0.19033986 0.38 105 177 1
-0.045771237 -0.19208658 0.38 105 177 1
-0.045773525 -0.19272724 0.38099998 105 177 1
-0.045773525 -0.19359896 0.38099998 105 177 1
-0.045775812 -0.19510482 0.38199997 105 177 1
-0.045775812 -0.19597493 0.38199997 105 177 1
-0.045775812 -0.19684502 0.38199997 105 177 1
-0.045775812 -0.19771512 0.38199997 105 177 1
-0.045775812 -0.19945532 0.38199997 105 177 1
-0.045775812 -0.20032541 0.38199997 105 177 1
-0.045775812 -0.20119551 0.38199997 105 177 1
-0.045775812 -0.20293571 0.38199997 105 177 1
-0.045775812 -0.2038058 0.38199997 105 177 1
-0.045773525 -0.20493136 0.38099998 105 177 1
-0.045773525 -0.2058031 0.38099998 105 177 1
-0.045771237 -0.20780689 0.38 105 177 1
-0.045768946 -0.20894222 0.37899995 105 177 1
-0.045764372 -0.21034439 0.37699997 105 177 1
-0.045764372 -0.21210085 0.37699997 105 177 1
-0.045764372 -0.21297908 0.37699997 105 177 1
-0.045764372 -0.21385731 0.37699997 105 177 1
-0.045764372 -0.21473554 0.37699997 105 177 1
-0.045766659 -0.21621701 0.37799996 105 177 1
-0.045771237 -0.2165404 0.38 105 177 1
-0.045768946 -0.21769199 0.37899995 105 177 1
-0.04490963 -0.059385668 0.38299996 105 177 1
-0.04490963 -0.065464966 0.38299996 105 177 1
-0.044921372 -0.066342801 0.38599998 105 177 1
-0.044921372 -0.067206398 0.38599998 105 177 1
-0.044925287 -0.06806986 0.38699996 105 177 1
-0.044925287 -0.069793791 0.38699996 105 177 1
-0.044929203 -0.070650741 0.38799995 105 177 1
-0.044929203 -0.071511082 0.38799995 105 177 1
-0.044933118 -0.073221877 0.389 105 177 1
-0.044933118 -0.074080586 0.389 105 177 1
-0.044937029 -0.07492616 0.38999999 105 177 1
-0.044937029 -0.075783245 0.38999999 105 177 1
-0.044937029 -0.077497423 0.38999999 105 177 1
-0.044937029 -0.078354508 0.38999999 105 177 1
-0.044940945 -0.079190321 0.39099997 105 177 1
-0.044940945 -0.080901243 0.39099997 105 177 1
-0.044940945 -0.081756704 0.39099997 105 177 1
-0.044940945 -0.082612164 0.39099997 105 177 1
-0.044940945 -0.083467625 0.39099997 105 177 1
-0.044940945 -0.085178547 0.39099997 105 177 1
-0.044940945 -0.086034007 0.39099997 105 177 1
-0.04494486 -0.086853556 0.39199996 105 177 1
-0.04494486 -0.088561222 0.39199996 105 177 1
-0.04494486 -0.089415058 0.39199996 105 177 1
-0.04494486 -0.090268895 0.39199996 105 177 1
-0.04494486 -0.091122732 0.39199996 105 177 1
-0.04494486 -0.092830397 0.39199996 105 177 1
-0.04494486 -0.093684234 0.39199996 105 177 1
-0.04494486 -0.094538063 0.39199996 105 177 1
-0.04494486 -0.096245736 0.39199996 105 177 1
-0.04494486 -0.097099572 0.39199996 105 177 1
-0.044948775 -0.097896352 0.39299995 105 177 1
-0.044948775 -0.098748557 0.39299995 105 177 1
-0.044948775 -0.10045297 0.39299995 105 177 1
-0.044948775 -0.10130519 0.39299995 105 177 1
-0.044948775 -0.10215739 0.39299995 105 177 1
-0.044948775 -0.10386181 0.39299995 105 177 1
-0.04494486 -0.10478408 0.39199996 105 177 1
-0.04494486 -0.10563791 0.39199996 105 177 1
-0.04494486 -0.10649174 0.39199996 105 177 1
-0.04494486 -0.10819942 0.39199996 105 177 1
-0.04494486 -0.10905325 0.39199996 105 177 1
