# .PCD v0.7 - Point Cloud Data file format
VERSION 0.7
FIELDS x y z
SIZE 4 4 4
TYPE F F F
COUNT 1 1 1
WIDTH 786
HEIGHT 1
VIEWPOINT 0 0 0 1 0 0 0
POINTS 786
DATA ascii
0.019693354 -0.022994123 0.60200006
0.021649402 -0.023483135 0.60200006
0.023116438 -0.023483135 0.60200006
0.025887504 -0.023320131 0.60200006
0.016759282 -0.020549065 0.60200006
0.018910933 -0.020451263 0.60200006
0.021649402 -0.020549065 0.60200006
0.023116438 -0.020549065 0.60200006
0.026050508 -0.020549065 0.60200006
0.027843555 -0.020386061 0.60200006
0.016759282 -0.019082028 0.60200006
0.018715329 -0.019082028 0.60200006
0.021649402 -0.019082028 0.60200006
0.023116438 -0.019082028 0.60200006
0.026050508 -0.019082028 0.60200006
0.028006557 -0.019082028 0.60200006
0.016759282 -0.016147958 0.60200006
0.018715329 -0.016147958 0.60200006
0.0216494 -0.016147958 0.60200006
0.023116438 -0.016147958 0.60200006
0.026050508 -0.016147958 0.60200006
0.028006559 -0.016147958 0.60200006
0.030451618 -0.016147958 0.60200006
-0.015515503 -0.014191911 0.60200006
0.016759282 -0.014191911 0.60200006
0.018715329 -0.014191911 0.60200006
0.021649402 -0.014191911 0.60200006
0.023116438 -0.014191911 0.60200006
0.026050508 -0.014191911 0.60200006
0.028006557 -0.014191911 0.60200006
0.016759282 -0.012235862 0.60200006
0.019041337 -0.011583846 0.60200006
0.0216494 -0.011257838 0.60200006
0.023116438 -0.011257838 0.60200006
0.026050508 -0.011257838 0.60200006
0.028006559 -0.011257838 0.60200006
0.021649402 -0.0083237672 0.60200006
0.023116438 -0.0083237672 0.60200006
0.026050508 -0.0083237672 0.60200006
0.019268144 -0.027976882 0.60400003
0.021721328 -0.028467517 0.60400003
0.023683876 -0.028467519 0.60400003
0.026627693 -0.028467517 0.60400003
0.027936056 -0.028303972 0.60400003
0.01436178 -0.025033062 0.60400003
0.015833689 -0.0255237 0.60400003
0.018524012 -0.02575825 0.60374999
0.021685364 -0.025971266 0.60300004
0.023644662 -0.025971266 0.60300004
0.026583606 -0.025971266 0.60300004
0.028099604 -0.026014335 0.60400003
0.030879876 -0.025360154 0.60400003
0.0094554136 -0.023070516 0.60400003
0.010927323 -0.023561154 0.60400003
0.013867044 -0.023554787 0.60383338
0.015807474 -0.023522144 0.60300004
0.018746419 -0.024011968 0.6030001
0.021685364 -0.024991617 0.60300004
0.023644662 -0.024991617 0.60300004
0.026583606 -0.024501793 0.60300004
0.028053081 -0.02401197 0.6030001
0.031005077 -0.0235321 0.60325003
0.032515332 -0.023561154 0.60400003
-0.0077168643 -0.020126697 0.60400003
-0.0067355912 -0.020126697 0.60400003
-0.0037917725 -0.020126697 0.60400003
-0.0018292262 -0.020126697 0.60400003
0.001114593 -0.020126697 0.60400003
0.0040584123 -0.020126697 0.60400003
0.0060209581 -0.020617334 0.60400003
0.0094554136 -0.020617332 0.60400003
0.010927323 -0.020617332 0.60400003
0.013851735 -0.020589024 0.60316676
0.01776677 -0.021073023 0.60300004
0.028542902 -0.021073023 0.60300004
0.030992024 -0.020583199 0.60300004
0.032515332 -0.020617332 0.60400003
-0.010660684 -0.019145424 0.60400003
-0.0082075009 -0.019145424 0.60400003
-0.0067355912 -0.019145424 0.60400003
-0.0037917725 -0.019145424 0.60400003
-0.0018292262 -0.019145424 0.60400003
0.001114593 -0.019145424 0.60400003
0.0040584123 -0.019145424 0.60400003
0.0060209581 -0.019145424 0.60400003
0.0094554136 -0.019145424 0.60400003
0.010909232 -0.019113727 0.60300004
0.013848177 -0.019113727 0.60300004
0.030992024 -0.019113727 0.60300004
0.032515332 -0.019145424 0.60400003
-0.01299837 -0.015984541 0.60320008
-0.011139012 -0.016184265 0.60333341
-0.008198441 -0.016184265 0.60333341
-0.0067281569 -0.016184265 0.60333335
-0.003789318 -0.016193025 0.60366672
-0.0018292262 -0.016201606 0.60400003
0.0011145929 -0.016201608 0.60400003
0.0040584123 -0.016201606 0.60400003
0.0060209585 -0.016201606 0.60400003
0.0094471807 -0.016188195 0.60350007
0.010909232 -0.016174782 0.60300004
0.013848178 -0.01617478 0.6030001
0.031873707 -0.01637071 0.60300004
0.033005968 -0.015710969 0.60400003
-0.013092155 -0.014215485 0.60300004
-0.011132857 -0.014215485 0.60300004
-0.008193912 -0.014215485 0.60300004
-0.0067244396 -0.014215485 0.60300004
-0.003785494 -0.014215485 0.60300004
-0.0018292262 -0.01423906 0.60400003
0.001114593 -0.014239061 0.60400003
0.0040584123 -0.01423906 0.60400003
0.0060209581 -0.014239061 0.60400003
0.0094471797 -0.014227273 0.60350001
0.010909232 -0.014215485 0.60300004
0.013848177 -0.014215485 0.60300004
0.030992024 -0.014215485 0.60300004
0.032515332 -0.01423906 0.60400003
-0.015541275 -0.011276539 0.60300004
-0.013092156 -0.011276539 0.6030001
-0.011132858 -0.011276538 0.6030001
-0.008193912 -0.011276539 0.6030001
-0.0067244396 -0.011276539 0.60300004
-0.0037854942 -0.011276538 0.6030001
-0.001827207 -0.011282231 0.60333341
0.0011145929 -0.01129524 0.60400003
0.0040584123 -0.01129524 0.60400003
0.0060209581 -0.01129524 0.60400003
0.0094526699 -0.011291853 0.60383338
0.010909232 -0.011276539 0.60300004
0.013848177 -0.011276538 0.6030001
0.015807474 -0.010786715 0.60300004
0.01809332 -0.01062344 0.60300004
0.030992024 -0.011276538 0.6030001
0.032515332 -0.012276514 0.60400003
-0.015541276 -0.0083375936 0.60300004
-0.013092155 -0.0083375936 0.60300004
-0.011132857 -0.0083375936 0.60300004
-0.008193912 -0.0083375936 0.60300004
-0.0067244396 -0.0083375936 0.60300004
-0.0037870454 -0.0083422028 0.60333335
-0.0018292262 -0.0083514219 0.60400003
0.001114593 -0.0083514219 0.60400003
0.0040584123 -0.0083514219 0.60400003
0.0060209581 -0.0083514219 0.60400003
0.0094554136 -0.0083514219 0.60400003
0.010927323 -0.0083514219 0.60400003
0.013848177 -0.0083375936 0.60300004
0.015807474 -0.0083375936 0.60300004
0.018746419 -0.0083375936 0.60300004
0.028053079 -0.0083375936 0.60300004
0.031018129 -0.0083445078 0.60350001
-0.015541276 -0.0073579457 0.60300004
-0.012935847 -0.007034922 0.60333335
-0.011041952 -0.0065781334 0.60340005
-0.008202971 -0.0063848072 0.60366672
-0.0067318738 -0.0063848072 0.60366672
-0.0037917723 -0.0063888752 0.60400003
-0.0018292262 -0.0063888752 0.60400003
0.0011145929 -0.0063888752 0.60400003
0.0040584123 -0.0063888752 0.60400003
0.0060209576 -0.0063888752 0.60400003
0.0094554136 -0.0063888752 0.60400003
0.010927323 -0.0063888752 0.60400003
0.013848178 -0.0063782972 0.6030001
0.015807474 -0.0063782972 0.60300004
0.018746419 -0.0063782972 0.6030001
0.021685364 -0.0063782982 0.60300004
0.02364466 -0.0063782982 0.6030001
0.026583606 -0.0063782972 0.60300004
0.028060967 -0.0063797892 0.60316676
0.030863015 -0.00703899 0.60366672
0.032515332 -0.0073701488 0.60400003
-0.0067355912 -0.0034450563 0.60400003
-0.0037917725 -0.0034450563 0.60400003
-0.0018292262 -0.0034450563 0.60400003
0.001114593 -0.0034450563 0.60400003
0.0040584123 -0.0034450563 0.60400003
0.0060209581 -0.0034450563 0.60400003
0.0094554136 -0.0034450563 0.60400003
0.010927323 -0.0034450563 0.60400003
0.013848177 -0.0034393526 0.60300004
0.015807474 -0.0034393526 0.60300004
0.018746419 -0.0034393526 0.60300004
0.021685364 -0.0034393526 0.60300004
0.023644662 -0.0034393526 0.60300004
0.026627693 -0.0034450563 0.60400003
0.027608966 -0.0034450563 0.60400003
-0.0028104992 -0.0024637834 0.60400003
-0.0018292262 -0.0019731468 0.60400003
0.001114593 -0.0019731468 0.60400003
0.0040584123 -0.0019731468 0.60400003
0.0060209581 -0.0019731468 0.60400003
0.0094512971 -0.0019725333 0.60374999
0.010909232 -0.0019698802 0.60300004
0.013848177 -0.0019698802 0.6030001
0.015807474 -0.0019698802 0.60300004
0.018746419 -0.0019698802 0.6030001
0.021685364 -0.0019698802 0.60300004
0.023671074 -0.0019717871 0.60366672
0.026627693 -0.0019731468 0.60400003
0.0016052295 0.00048003558 0.60400003
0.0040584123 0.00048003558 0.60400003
0.0061407192 0.0013378415 0.60375005
0.009439759 0.0014588892 0.6030001
0.010909232 0.0014588892 0.60300004
0.013848178 0.0014588891 0.6030001
0.015807474 0.0014588892 0.60300004
0.01876387 0.0014607749 0.60355562
0.021721328 0.0014613086 0.60400003
0.023356782 0.0011342176 0.60400003
0.0069906386 0.0034181857 0.60300004
0.009439759 0.0034181857 0.60300004
0.010909232 0.0034181857 0.60300004
0.013848177 0.0034181857 0.60300004
0.015833689 0.0034238545 0.60400003
0.018777508 0.0034238545 0.60400003
0.021721328 0.0034238545 0.60400003
0.0099295834 0.0053774826 0.60300004
0.010909232 0.0053774826 0.60300004
0.013985191 0.0062416703 0.60362506
0.015833689 0.0063676736 0.60400003
0.018450417 0.0060405824 0.60400003
0.015833689 0.0093114916 0.60400003
0.017796235 0.0093114916 0.60400003
0.020843068 -0.036005013 0.60700005
0.023801507 -0.036005013 0.60700005
0.026759947 -0.036005013 0.60700005
0.02873224 -0.036005013 0.60700005
0.031690683 -0.036005013 0.60700005
0.015912334 -0.03304657 0.60700005
0.019068005 -0.033441029 0.60700005
0.02131816 -0.033512425 0.60650003
0.023775095 -0.033503082 0.60633337
0.026715863 -0.033484392 0.60600001
0.028497795 -0.033594053 0.60619998
0.031327706 -0.033338994 0.60633332
0.033005543 -0.033375289 0.60700005
0.0099954512 -0.03008813 0.60700005
0.011474673 -0.03008813 0.60700005
0.014433112 -0.031074278 0.60700005
0.015899226 -0.031049494 0.60650003
0.018648673 -0.031230554 0.60620004
0.021793252 -0.032007609 0.60600001
0.023723086 -0.031954788 0.60500002
0.026671777 -0.031954788 0.60500002
0.028146122 -0.031954788 0.60500002
0.031310301 -0.031351257 0.60600001
0.033142984 -0.031048682 0.60650003
0.03563527 -0.031074278 0.60700005
-0.005782899 -0.028608911 0.60700005
-0.0033175319 -0.028608911 0.60700005
-0.0018383117 -0.028608911 0.60700005
0.001120129 -0.028608911 0.60700005
0.0030924228 -0.028608911 0.60700005
0.0060508638 -0.028608911 0.60700005
0.0094982609 -0.028597331 0.60675001
0.011297711 -0.02874185 0.60633332
0.014104793 -0.028444801 0.6056
0.015873011 -0.02853862 0.60549998
0.018808598 -0.029006097 0.60500002
0.02175729 -0.029988995 0.60500002
0.023723086 -0.029988995 0.60500002
0.026671777 -0.029988995 0.60500002
0.028309939 -0.029661363 0.60500002
0.030996526 -0.028809518 0.60500002
0.033101801 -0.0285502 0.60574996
0.036113665 -0.028597331 0.60675007
-0.0061015463 -0.025444128 0.60600001
-0.0033120667 -0.025608215 0.60600001
-0.0018352832 -0.025608215 0.60600001
0.0011182837 -0.025608214 0.60600001
0.0035762298 -0.025587492 0.60549998
0.0060389633 -0.025601305 0.60583329
0.0094788959 -0.025587492 0.60549998
0.010954461 -0.025587492 0.60549998
0.013648383 -0.025811682 0.60500002
0.031586263 -0.026057405 0.60500002
0.033060614 -0.025565956 0.60500002
0.036098991 -0.025875878 0.60650003
-0.0077296407 -0.023108711 0.60500002
-0.0067523187 -0.023620071 0.60549998
-0.0037980499 -0.023600161 0.60500002
-0.0018322547 -0.023600161 0.60500002
0.0011164383 -0.023600161 0.60500002
0.0040651313 -0.023600161 0.60500002
0.0060309265 -0.023600161 0.60500002
0.0094710682 -0.024091611 0.60500002
0.033552062 -0.023600161 0.60500002
0.036098991 -0.023658674 0.60650003
-0.010678334 -0.020160019 0.60500002
-0.0083849058 -0.020815285 0.60500002
-0.0067467433 -0.021142917 0.60500002
-0.0037980501 -0.021142917 0.60500002
-0.0018322547 -0.021142917 0.60500002
0.0011164383 -0.021142917 0.60500002
0.0040651313 -0.021142917 0.60500002
0.033552062 -0.020651467 0.60500002
0.035576563 -0.020685602 0.60600001
-0.012644129 -0.019177122 0.60500002
-0.011661232 -0.019177122 0.60500002
0.033552062 -0.019177122 0.60500002
0.035576563 -0.019208819 0.60600001
0.033552062 -0.01622843 0.60500002
0.035576563 -0.016255254 0.60600001
0.033552062 -0.014262634 0.60500002
0.03563527 -0.014309783 0.60700005
0.032915283 -0.011320717 0.60533333
0.032569163 -0.0083652483 0.60500002
0.031293437 -0.0057501565 0.6056667
0.032676827 -0.0064206081 0.60700005
-0.0077296407 -0.0034507599 0.60500002
0.029177979 -0.0034564638 0.60600007
-0.004289499 -0.0024678623 0.60500002
0.028181624 -0.0019786607 0.60575002
0.02437835 0.0021189929 0.60500002
0.026686473 0.001465076 0.60533333
0.027730858 0.0014683018 0.60666674
0.023723086 0.0034295234 0.60500002
0.026715863 0.0034351915 0.60600001
0.019463863 0.0070334808 0.60500002
0.021769278 0.0063822716 0.60533333
0.02363494 0.0062649841 0.60587502
0.026759947 0.0063993009 0.60700005
0.019331947 0.0093423249 0.60600001
0.021793252 0.0093423249 0.60600001
0.022815362 0.0093577411 0.60700005
0.019300047 0.010309806 0.60500002
0.021793252 0.010326847 0.60600001
0.024869328 -0.041070629 0.60900003
0.026848121 -0.041070629 0.60900003
0.028826913 -0.041070629 0.60900003
0.031795103 -0.041070629 0.60900003
0.032784499 -0.041070629 0.60900003
0.019180298 -0.038349789 0.60900003
0.020911742 -0.038597137 0.60900003
0.023866588 -0.038576286 0.60866666
0.026826076 -0.038565855 0.6085
0.028803244 -0.038565855 0.6085
0.031769 -0.038565855 0.6085
0.033279195 -0.038597137 0.60900003
0.035752688 -0.038102441 0.60900003
0.0090389885 -0.036123648 0.60900003
0.011512479 -0.036123648 0.60900003
0.014645568 -0.036453445 0.60900003
0.015951656 -0.036588687 0.6085
0.018911956 -0.036578532 0.60833335
0.020877406 -0.037052102 0.60800004
0.02384072 -0.037052102 0.60800004
0.026804034 -0.037052102 0.60800004
0.028779576 -0.037052102 0.60800004
0.031742893 -0.037052102 0.60800004
0.033224553 -0.036558218 0.60800004
0.036232706 -0.036603514 0.60875005
0.03773148 -0.036123648 0.60900003
-0.0058019538 -0.03315546 0.60900003
-0.0033284631 -0.03315546 0.60900003
-0.0013496707 -0.03315546 0.60900003
0.0016185178 -0.03315546 0.60900003
0.003102612 -0.03315546 0.60900003
0.0063181492 -0.033402808 0.60900003
0.0090389885 -0.03365016 0.60900003
0.01101148 -0.03363201 0.60866666
0.014456891 -0.033594899 0.60800004
0.015938548 -0.034088787 0.60800004
0.01791409 -0.034088787 0.60800004
0.033718437 -0.034088787 0.60800004
0.036187865 -0.033594899 0.60800004
0.03806128 -0.03348526 0.60900003
-0.0057924264 -0.031125471 0.60800004
-0.0033245671 -0.031138677 0.60825002
-0.0018413402 -0.031125471 0.60800004
0.0011219744 -0.031125471 0.60800004
0.0030975174 -0.031125471 0.60800004
0.0060608317 -0.031125471 0.60800004
0.0090241469 -0.031125471 0.60800004
0.01099969 -0.032113243 0.60800004
0.036681749 -0.031125471 0.60800004
0.0381952 -0.031151071 0.6085
0.040699668 -0.030187272 0.60900003
0.038179301 -0.028668031 0.60825002
0.040699668 -0.028703177 0.60900003
0.038163409 -0.026186615 0.60800004
0.040699668 -0.026229687 0.60900003
0.0381952 -0.023736691 0.6085
0.036681749 -0.020753872 0.60800004
0.03773148 -0.020788006 0.60900003
0.036681749 -0.019272216 0.60800004
0.038194388 -0.019288063 0.6085
0.040699668 -0.019303912 0.60900003
0.036681749 -0.0163089 0.60800004
0.03834869 -0.016647099 0.60833335
0.040632837 -0.017296672 0.60800004
0.033746168 -0.010884695 0.6085
0.035752688 -0.012378139 0.60900003
0.029816311 -0.0024841789 0.60900003
0.028803244 0.00097831013 0.6085
0.027791806 0.0034465292 0.60800004
0.024828492 0.0073976149 0.60800004
0.026804034 0.0064098435 0.60800004
0.027837517 0.0054309899 0.60900003
0.024355024 0.0093808658 0.6085
0.026804034 0.0093731582 0.60800004
0.02336644 0.01036945 0.6085
0.01654054 -0.045250025 0.61200005
0.019026216 -0.045250025 0.61200005
0.020509036 -0.045728676 0.61175001
0.02397796 -0.045710191 0.61150002
0.025964875 -0.045710191 0.61150002
0.028741661 -0.045603372 0.61140001
0.031951725 -0.045250025 0.61200005
0.014054866 -0.043261483 0.61200005
0.016034126 -0.043237921 0.61166668
0.019491449 -0.043190796 0.611
0.020980418 -0.043190796 0.611
0.023944741 -0.043167233 0.61066669
0.025901185 -0.043120109 0.61000001
0.028874246 -0.043120105 0.61000001
0.031847309 -0.043120109 0.61000001
0.033903837 -0.043214362 0.61133337
0.036862746 -0.043190796 0.611
-0.0018534543 -0.041272946 0.61200005
0.0061007058 -0.041272946 0.61200005
0.0080892462 -0.041272946 0.61200005
0.011320624 -0.041521512 0.61200005
0.014043383 -0.041736361 0.61150002
0.016012551 -0.041690588 0.61083335
0.019467322 -0.041650843 0.61025
0.02094608 -0.041633576 0.61000001
0.023720939 -0.041732676 0.61000001
0.025901185 -0.042129088 0.61000001
0.028874246 -0.042129088 0.61000001
0.031847309 -0.042129088 0.61000001
0.034027554 -0.041732676 0.61000001
0.036832578 -0.04166811 0.61049998
0.038206924 -0.041559409 0.61133337
0.04136388 -0.041239224 0.61150002
-0.0013552111 -0.038755987 0.61150002
0.0016256233 -0.038771629 0.61175001
0.0031153485 -0.038755987 0.61150002
0.0060957219 -0.038755987 0.61150002
0.0080826376 -0.038755987 0.61150002
0.011050679 -0.038713466 0.61083335
0.014510186 -0.03867656 0.61025
0.016321316 -0.03882568 0.61000001
0.018964039 -0.039156023 0.61000001
0.03482037 -0.039156023 0.61000001
0.036802415 -0.038660511 0.61000001
0.038304843 -0.03867656 0.61025
0.041329652 -0.038723893 0.611
0.043220121 -0.03862156 0.61200005
-0.0028384181 -0.036182962 0.61000001
-0.0013518869 -0.036678471 0.61000001
0.0016225043 -0.036708944 0.61049998
0.0031102542 -0.036708944 0.61049998
0.0060857534 -0.036708947 0.61050004
0.0080628106 -0.037173983 0.61000001
0.010788117 -0.036926229 0.61000001
0.014008935 -0.037173983 0.61000001
0.038454115 -0.036843643 0.61000001
0.041296232 -0.036708537 0.61049998
0.043350793 -0.036768667 0.61150002
0.045871507 -0.036301594 0.61200005
-0.0033339285 -0.034200922 0.61000001
-0.0013518869 -0.034200922 0.61000001
0.0016211756 -0.034200922 0.61000001
0.0031077068 -0.034200922 0.61000001
0.0055852588 -0.034200922 0.61000001
0.038784456 -0.034200922 0.61000001
0.041262008 -0.033705413 0.61000001
0.043350793 -0.033788294 0.61150002
0.045871507 -0.034313057 0.61200005
0.041427176 -0.031558201 0.61000001
0.043350793 -0.03130465 0.61150002
0.041757517 -0.028750308 0.61000001
0.042818617 -0.02879744 0.611
0.041757517 -0.026272755 0.61000001
0.042888697 -0.026358895 0.61200005
0.041296232 -0.023814708 0.61049998
0.038784456 -0.020822141 0.61000001
0.041330058 -0.02085587 0.611
0.041894428 -0.019399006 0.61200005
0.037824415 -0.016375147 0.61049998
0.041757517 -0.017353568 0.61000001
0.036802415 -0.014380506 0.61000001
0.033884808 -0.0084482087 0.611
0.031847309 -0.0034792786 0.61000001
0.029914228 -0.0014996917 0.611
0.029418716 0.0014766196 0.61100006
0.028921584 0.0034635349 0.611
0.02842607 0.0059443358 0.61100006
0.024991836 0.010429094 0.61200005
0.011607 -0.0453979 0.61400002
0.013092607 -0.045859694 0.6135
0.015942099 -0.046648271 0.61357147
0.019072849 -0.046856396 0.6135
0.020584673 -0.047392938 0.61400002
0.023558438 -0.047354348 0.6135
0.02507351 -0.047392938 0.61400002
0.030012148 -0.046319857 0.61300004
0.032999832 -0.045323964 0.61300004
0.0036268448 -0.043402862 0.61400002
0.0066194031 -0.043402862 0.61400002
0.0081156818 -0.043402862 0.61400002
0.011095637 -0.043355737 0.61333334
-0.0011930211 -0.042027336 0.61333334
0.0016304773 -0.041872863 0.6135
0.0034588932 -0.042050358 0.61366671
0.0064426395 -0.042004317 0.61300004
0.0081024636 -0.042336281 0.61300004
0.0105922 -0.042336281 0.61300004
0.038975198 -0.042336281 0.61300004
0.043028854 -0.041407824 0.61400002
0.044026375 -0.039412785 0.61400002
0.046021413 -0.038415264 0.61400002
0.04666144 -0.037064929 0.61366671
0.04666144 -0.033742029 0.61366671
0.04594646 -0.031381439 0.61300004
0.04395467 -0.028891703 0.61300004
0.046021413 -0.029437592 0.61400002
0.044026375 -0.027442554 0.61400002
0.042958777 -0.023912229 0.61300004
0.042993814 -0.020941205 0.6135
0.043028854 -0.018963642 0.61400002
0.040966988 -0.01644302 0.61300004
0.037043739 -0.012479767 0.61400002
0.031058624 -0.0025045744 0.61400002
0.030061105 0.0014855023 0.61400002
0.028541971 0.0069657741 0.6135
0.0131673 -0.05063168 0.61700004
0.01617448 -0.050631683 0.61700004
0.01915057 -0.050549619 0.61600006
0.0021409758 -0.047624502 0.61700004
0.0036445656 -0.047624502 0.61700004
0.0066517452 -0.047624502 0.61700004
0.0081553347 -0.047624502 0.61700004
0.011150724 -0.048073966 0.61633343
0.01314596 -0.04854808 0.61600006
0.016130246 -0.048495542 0.61533338
0.019119482 -0.048469272 0.61500001
0.021141203 -0.048521806 0.61566669
-0.00086409791 -0.04600919 0.61550003
0.0011359248 -0.04604616 0.61600006
0.003635705 -0.046009194 0.61550003
0.0066355737 -0.04600919 0.61550003
0.0081355087 -0.04600919 0.61550003
0.010876546 -0.0462212 0.61500001
0.013124619 -0.047470126 0.61500001
0.02611349 -0.047470126 0.61500001
0.028111778 -0.047470126 0.61500001
-0.00086339598 -0.043473553 0.61500001
0.0016344639 -0.043473553 0.61500001
0.048251063 -0.037600569 0.61700004
0.048172858 -0.036538858 0.61600006
0.048198927 -0.033554159 0.61633337
0.047095511 -0.031483825 0.61500001
0.046504911 -0.028532172 0.616
0.044098079 -0.025488961 0.61500001
0.044205636 -0.024048353 0.61650002
0.044241488 -0.021061085 0.61700004
0.044241488 -0.019557495 0.61700004
0.034162097 -0.0065158065 0.61600006
0.033107497 -0.0035077976 0.61500001
0.03110921 -0.0015095097 0.61500001
0.030660221 0.0014887165 0.61600006
0.030159023 0.003491878 0.61600006
0.028681539 0.0085018035 0.61650002
0.0021479158 -0.050795801 0.61900002
0.0036546993 -0.051278107 0.61874998
0.0065056998 -0.051131021 0.61900002
0.0088472506 -0.051103663 0.61866665
0.011692066 -0.051257595 0.61849999
0.013209983 -0.051801447 0.61900002
0.016226908 -0.051801447 0.61900002
0.020735942 -0.050754771 0.61849999
0.0021444457 -0.048705705 0.61800003
0.0036504725 -0.048705705 0.61800003
0.0066625252 -0.048705705 0.61800003
0.0081685521 -0.048705705 0.61800003
0.024232836 -0.048705705 0.61800003
0.025277691 -0.048784517 0.61900002
0.049333282 -0.036657494 0.61800003
0.049359888 -0.033663046 0.61833334
0.048329264 -0.030633386 0.61800003
0.047325246 -0.02862535 0.61800003
0.048407465 -0.029677313 0.61900002
0.04531721 -0.025613299 0.61800003
0.034273017 -0.0055329436 0.61800003
0.033268999 -0.0025208909 0.61800003
0.031311546 0.0014975993 0.61900002
0.030256946 0.0055112508 0.61800003
0.0087266816 -0.05508405 0.62200004
0.011758231 -0.05508405 0.62200004
0.0036656456 -0.052935049 0.62050003
0.006190422 -0.052977707 0.62100005
0.0087052304 -0.052935049 0.62050003
0.011720423 -0.052892394 0.62
0.013734957 -0.052892394 0.62
0.016797705 -0.053020362 0.62150002
0.0021513856 -0.051885128 0.62
0.0071877209 -0.051885128 0.62
0.0081949877 -0.051885128 0.62
0.018267659 -0.051885128 0.62
0.020347619 -0.052052502 0.62200004
0.051226016 -0.033789534 0.62066668
0.049572762 -0.030782092 0.62100005
0.047478404 -0.027710723 0.62
0.048563872 -0.028764309 0.62100005
0.045537196 -0.024223484 0.62100005
0.045610525 -0.021737015 0.62200004
0.035476819 -0.0085942037 0.62150002
0.034439389 -0.0035420198 0.62100005
0.032473814 -0.0015266911 0.62200004
0.031412713 0.0030165878 0.62100005
0.030354863 0.0065363534 0.62
0.029347597 0.0095581543 0.62
0.030452782 0.0075679547 0.62200004
0.0041927965 -0.055261172 0.62400001
0.0062103593 -0.055172611 0.62300003
0.009261624 -0.056274936 0.62400001
0.01027539 -0.056274936 0.62400001
0.0138129 -0.055216894 0.62349999
0.050826009 -0.0309308 0.62400001
0.049265448 -0.028879296 0.62349999
0.047708135 -0.025820525 0.62300003
0.045683853 -0.020759821 0.62300003
0.045683853 -0.01974768 0.62300003
0.036633294 -0.010655489 0.62400001
0.035619527 -0.0066004274 0.62400001
0.034605764 -0.0025453656 0.62400001
0.03257823 -0.00051783468 0.62400001
0.03257823 0.0015096962 0.62400001
0.031513881 0.0055558402 0.62300003
0.0082742935 -0.056455303 0.62600005
0.012342353 -0.056455303 0.62600005
0.015417987 -0.055526849 0.62700003
0.052938245 -0.035041928 0.625
0.052980594 -0.033545252 0.62550002
0.050988916 -0.030012922 0.62600005
0.049892075 -0.028949587 0.625
0.04903309 -0.025986306 0.62700003
0.046920858 -0.024418527 0.62600005
0.037707392 -0.011687955 0.625
0.034661222 -0.0015340546 0.625
0.03268265 0.0030408693 0.62600005
0.031615052 0.0065890662 0.625
0.031157941 0.0086320136 0.62600005
0.013402049 -0.056635674 0.62800002
0.053192347 -0.031129073 0.62800002
0.050682414 -0.028601572 0.62849998
0.047145717 -0.021981644 0.62900001
0.03794872 -0.01074087 0.62900001
0.036868121 -0.0097035291 0.62800002
0.035847858 -0.005622474 0.62800002
0.035847858 -0.0030718141 0.62800002
0.03380733 -0.00052115414 0.62800002
0.03380733 0.0015193739 0.62800002
0.032839276 0.0056093475 0.62900001
0.031817388 0.0096969018 0.62900001
0.0093655204 -0.05793136 0.63100004
0.010407126 -0.058023173 0.63200003
0.0062801386 -0.056816038 0.63000005
0.05447159 -0.035378329 0.63100004
0.05447159 -0.033840623 0.63100004
0.052421313 -0.030252639 0.63100004
0.049345899 -0.025126951 0.63100004
0.050450865 -0.026193535 0.63200003
0.047258146 -0.020497169 0.63050008
0.039156478 -0.012845623 0.63200003
0.041723385 -0.013872386 0.63200003
0.039156478 -0.011818861 0.63200003
0.037044246 -0.0076996088 0.63100004
0.038069382 -0.0097498847 0.63100004
0.037102953 -0.0030913795 0.63200003
0.035990566 -0.0010349853 0.63050008
0.036076192 0.0015290513 0.63200003
0.033968829 0.0030651512 0.63100004
0.032891482 0.0066417782 0.63000005
0.032995902 0.007689626 0.63200003
0.0083668176 -0.058114983 0.63300002
0.0052816565 -0.057086594 0.63300002
0.014560106 -0.057176773 0.634
0.054644242 -0.031376913 0.63300002
0.051559079 -0.028291754 0.63300002
0.052670542 -0.029366462 0.634
0.048473917 -0.024178207 0.63300002
0.047445528 -0.019036271 0.63300002
0.039218433 -0.010809174 0.63300002
0.038250379 -0.0077362149 0.634
0.037161659 -0.0061814319 0.63300002
0.037161659 -0.0015536905 0.63300002
0.036190353 0.0025639017 0.634
0.034130331 0.0056539369 0.634
0.033100318 0.0087439725 0.634
0.011488163 -0.058298595 0.63500005
0.019803433 -0.056412447 0.63700002
0.056024432 -0.033644959 0.63700002
0.054816891 -0.030444415 0.63500005
0.052919772 -0.028470533 0.63700002
0.05132753 -0.025863409 0.6365
0.048703652 -0.02119193 0.6360001
0.047745343 -0.017086793 0.63700002
0.041405618 -0.014969872 0.63500005
0.042570915 -0.01294725 0.63700002
0.041438222 -0.011367682 0.63550007
0.039404303 -0.008792256 0.63600004
0.041536029 -0.0088077076 0.63700002
0.03831071 -0.0062009627 0.63500005
0.038371041 -0.0031109455 0.63600004
0.037279073 -0.00052696315 0.63500005
0.038431372 -0.0015635084 0.63700002
0.03733778 0.0015387288 0.63600004
0.035271257 0.0036052507 0.63600004
0.034237999 0.0067050331 0.63600004
0.03429183 0.0077504613 0.63700002
0.0063598864 -0.058574021 0.63800001
0.016232137 -0.057627697 0.63900006
0.056112375 -0.0357708 0.63800001
0.056112375 -0.03473429 0.63800001
0.056112375 -0.03162476 0.63800001
0.054039355 -0.029551739 0.63800001
0.051009655 -0.024407383 0.63900006
0.044710767 -0.016077107 0.63800001
0.046783786 -0.016595362 0.63800001
0.042637747 -0.011412811 0.63800001
0.042704575 -0.0098734964 0.63900006
0.039528217 -0.0062302593 0.63800001
0.041601237 -0.0062302593 0.63800001
0.039559193 -0.0031227679 0.63850003
0.038491704 -0.00052945275 0.63800001
0.038552035 0.001545987 0.63900006
0.037455194 0.0025800779 0.63800001
0.035382174 0.0056896084 0.63800001
0.034399495 0.0088129304 0.63900006
0.033309154 0.010872159 0.63800001
0.05628828 -0.030684136 0.64000005
0.052210696 -0.02552516 0.64100003
0.053252079 -0.026566545 0.64100003
0.050167028 -0.021896977 0.6415
0.049009964 -0.019246783 0.64000005
0.044366084 -0.015099532 0.64050007
0.044366084 -0.013018388 0.64050007
0.044227291 -0.011640039 0.64100003
0.043393157 -0.0088707404 0.6415
0.042905066 -0.0067908242 0.64200002
0.040787257 -0.0031374421 0.6415
0.039683107 -0.0010514071 0.64050007
0.038122654 0.0031100677 0.64050007
0.035548549 0.0067577465 0.64100003
0.037690021 0.0057252804 0.64200002
0.045061164 -0.010979935 0.64300001
0.044016533 -0.0078460351 0.64300001
0.042971898 -0.0057567689 0.64300001
0.040882632 -0.0015782354 0.64300001
0.039837997 0.0015556646 0.64300001
0.039346658 0.0031246366 0.64350003
0.035659466 0.0078234645 0.64300001
0.034198556 0.011515387 0.64500004
0.18480144 -0.065655284 0.65700001
0.18266669 -0.060318392 0.65700001
0.18266669 -0.059251014 0.65700001
0.18294472 -0.06308271 0.65800005
0.18522336 -0.063666359 0.65850008
0.1858993 -0.060502011 0.65900004
0.18572086 -0.05907451 0.65900004
0.18294472 -0.055065189 0.65800005
0.18536399 -0.055684187 0.65900004
0.18294472 -0.053461686 0.65800005
0.18536399 -0.053542934 0.65900004
0.18536399 -0.050866362 0.65900004
0.1858993 -0.049260423 0.65900004
0.18598397 -0.046203416 0.65866673
0.18643461 -0.044442598 0.65900004
0.18536399 -0.040695403 0.65900004
0.18536399 -0.039089464 0.65900004
0.1858993 -0.036412895 0.65900004
0.18681182 -0.063842259 0.6603334
0.18778978 -0.064882822 0.66000003
0.18671753 -0.058449313 0.66000003
0.18671753 -0.055768684 0.66000003
0.18671753 -0.053624179 0.66000003
0.18671753 -0.05094355 0.66000003
0.18700044 -0.039208096 0.66100001
0.18700044 -0.037060343 0.66100001
0.1857454 0.11080057 0.67200005
0.18219863 0.11499617 0.671
