ply
format ascii 1.0
comment PCL generated
element vertex 1043
property float x
property float y
property float z
property uchar red
property uchar green
property uchar blue
element camera 0
property float view_px
property float view_py
property float view_pz
property float x_axisx
property float x_axisy
property float x_axisz
property float y_axisx
property float y_axisy
property float y_axisz
property float z_axisx
property float z_axisy
property float z_axisz
property float focal
property float scalex
property float scaley
property float centerx
property float centery
property int viewportx
property int viewporty
property float k1
property float k2
end_header
-0.012454551 -0.041042373 0.84600002 108 92 66
-0.010143789 -0.041042373 0.84600002 104 90 64
-0.0078330254 -0.041042373 0.84600002 94 80 54
0.0037119915 -0.040945347 0.84400004 102 87 64
0.00603155 -0.041042373 0.84600002 77 65 43
0.0083423126 -0.041042373 0.84600002 81 69 47
0.010653076 -0.041042373 0.84600002 78 67 45
-0.035478108 -0.038640048 0.84400004 127 110 82
-0.033172805 -0.038640048 0.84400004 152 133 101
-0.028562207 -0.038640048 0.84400004 142 123 91
0.006017291 -0.038640048 0.84400004 81 69 45
0.0083324518 -0.038685832 0.84500003 84 72 48
0.010640483 -0.038685832 0.84500003 81 69 47
0.012963839 -0.038731612 0.84600002 80 68 46
0.015274601 -0.038731612 0.84600002 94 82 60
-0.035562176 -0.036420848 0.84600002 124 105 75
-0.03321211 -0.036377799 0.84500003 140 121 91
-0.030867506 -0.036334749 0.84400004 131 112 82
0.0060244207 -0.036377799 0.84500003 104 90 64
0.0083423126 -0.036420848 0.84600002 81 69 45
-0.047115989 -0.034110088 0.84600002 127 112 89
0.0083423126 -0.034110088 0.84600002 95 85 60
-0.049426753 -0.031799324 0.84600002 130 116 89
-0.0032115004 -0.031799324 0.84600002 108 94 68
0.0037207874 -0.031799324 0.84600002 94 84 57
0.00603155 -0.031799324 0.84600002 103 93 68
-0.056225803 -0.029418848 0.84400004 0 0 0
-0.019341007 -0.029418848 0.84400004 104 89 60
-0.0032077041 -0.029453706 0.84500003 111 97 70
-0.058600456 -0.027145674 0.84500003 0 0 0
-0.033172805 -0.027113549 0.84400004 137 122 89
-0.030867506 -0.027113549 0.84400004 127 112 81
-0.028596047 -0.027145674 0.84500003 84 69 40
-0.026288016 -0.027145674 0.84500003 78 62 36
-0.024008363 -0.027177798 0.84600002 84 68 42
-0.021697601 -0.027177798 0.84600002 88 74 48
-0.014765313 -0.027177798 0.84600002 91 77 48
-0.012439829 -0.027145674 0.84500003 104 90 63
-0.010131798 -0.027145674 0.84500003 109 95 68
-0.0078237662 -0.027145674 0.84500003 106 92 65
-0.0055222632 -0.027177798 0.84600002 104 90 63
-0.033172805 -0.02480825 0.84400004 87 72 41
-0.030867506 -0.02480825 0.84400004 112 99 67
-0.028596047 -0.024837645 0.84500003 108 94 65
-0.026319126 -0.024867035 0.84600002 87 73 47
-0.024008363 -0.024867035 0.84600002 90 76 50
-0.035562176 -0.022556273 0.84600002 83 69 40
-0.067752302 -0.02019765 0.84400004 107 92 69
-0.037828173 -0.02022158 0.84500003 120 104 78
-0.040136203 -0.017913548 0.84500003 120 105 76
-0.042494465 -0.015623987 0.84600002 112 99 67
-0.051676363 -0.013297486 0.84500003 94 79 50
-0.083988801 -0.010989456 0.84500003 0 0 0
-0.053920504 -0.010976451 0.84400004 105 90 61
-0.086194701 -0.0086711505 0.84400004 116 100 75
-0.058531106 -0.0086711505 0.84400004 100 86 59
-0.056359041 -0.0086916992 0.84600002 113 99 70
-0.0908053 -0.006365851 0.84400004 108 94 68
-0.0908053 -0.0040605511 0.84400004 148 132 106
-0.065524548 -0.0040653623 0.84500003 99 85 58
-0.086398952 0.00055135187 0.84600002 126 109 83
-0.084088191 0.0028621145 0.84600002 82 65 39
-0.081777431 0.0051728771 0.84600002 77 60 34
-0.074756674 0.0051667625 0.84500003 107 92 69
0.05924904 -0.08736077 0.84700006 79 64 43
0.061562534 -0.08736077 0.84700006 80 68 44
0.054622054 -0.085047275 0.84700006 73 61 39
0.06618952 -0.085047275 0.84700006 82 70 44
0.06618952 -0.08273378 0.84700006 80 70 43
0.052308559 -0.080420285 0.84700006 80 66 40
0.052308559 -0.078106791 0.84700006 72 58 32
0.054622054 -0.078106791 0.84700006 65 53 29
0.056935545 -0.078106791 0.84700006 78 67 45
0.054622054 -0.075793296 0.84700006 68 56 32
0.015292656 -0.057285346 0.84700006 89 78 56
0.012979161 -0.054971851 0.84700006 83 71 47
0.010665668 -0.05265836 0.84700006 94 82 60
0.015292656 -0.05265836 0.84700006 80 69 47
0.024546633 -0.05265836 0.84700006 71 63 42
0.015292656 -0.050344866 0.84700006 79 68 46
0.02917362 -0.050344866 0.84700006 61 54 35
-0.012469273 -0.048031371 0.84700006 100 86 60
-0.010155778 -0.048031371 0.84700006 105 93 69
-0.0055287904 -0.048031371 0.84700006 102 90 66
0.0037251855 -0.048031371 0.84700006 90 78 54
0.0060386797 -0.048031371 0.84700006 87 75 53
0.0083521744 -0.048031371 0.84700006 72 60 38
-0.017096261 -0.045717876 0.84700006 106 90 64
0.0014116915 -0.045717876 0.84700006 108 96 72
0.0083521744 -0.045717876 0.84700006 75 64 44
0.017606148 -0.045717876 0.84700006 103 91 67
0.017606148 -0.043404382 0.84700006 92 80 56
0.019919643 -0.043404382 0.84700006 92 80 56
0.022233138 -0.043404382 0.84700006 71 59 37
-0.026350236 -0.041090887 0.84700006 146 125 94
-0.024036741 -0.041090887 0.84700006 140 117 85
-0.021723248 -0.041090887 0.84700006 141 118 86
0.012979161 -0.041090887 0.84700006 98 86 62
-0.037917707 -0.038777396 0.84700006 92 78 51
0.017606148 -0.038777396 0.84700006 81 69 47
0.019919643 -0.038777396 0.84700006 81 70 48
0.010665668 -0.034150407 0.84700006 69 58 36
-0.051798671 -0.031836912 0.84700006 121 109 83
-0.019409755 -0.027209925 0.84700006 109 95 68
-0.017096261 -0.027209925 0.84700006 107 93 66
-0.035604212 -0.020269442 0.84700006 114 100 73
-0.077247106 -0.015642455 0.84700006 0 0 0
-0.049485177 -0.01332896 0.84700006 98 83 54
-0.051798671 -0.011015466 0.84700006 99 85 58
-0.058739156 -0.0063884784 0.84700006 103 91 65
-0.091128066 -0.0017614904 0.84700006 112 97 68
-0.067993134 0.00055200356 0.84700006 113 101 75
-0.077247106 0.0074924859 0.84700006 100 85 62
0.064026855 -0.094523922 0.84900004 67 54 35
0.066345818 -0.094523922 0.84900004 99 88 68
0.054751031 -0.089886002 0.84900004 81 70 50
0.063951448 -0.089780129 0.84800005 90 75 54
0.066345818 -0.089886002 0.84900004 95 82 63
0.064026855 -0.087567054 0.84900004 84 69 46
0.054751031 -0.082929142 0.84900004 95 83 61
0.068583898 -0.080515236 0.84800005 84 77 51
0.038472965 -0.078199007 0.84800005 85 75 50
0.059388943 -0.07829123 0.84900004 69 61 38
0.061707903 -0.07829123 0.84900004 80 72 51
0.064026855 -0.07829123 0.84900004 73 66 47
0.066345818 -0.07829123 0.84900004 62 56 34
0.057002768 -0.075882785 0.84800005 64 56 35
0.064026855 -0.075972266 0.84900004 63 56 37
0.054751031 -0.071334355 0.84900004 69 54 31
0.01300981 -0.059739571 0.84900004 115 101 75
0.024604592 -0.059739571 0.84900004 62 56 34
0.0083718952 -0.057420615 0.84900004 89 74 51
0.01067826 -0.057352982 0.84800005 95 80 57
0.017626936 -0.057352982 0.84800005 87 76 54
0.022285637 -0.057420615 0.84900004 60 54 32
0.024575613 -0.057352982 0.84800005 61 55 33
0.052432075 -0.057420615 0.84900004 54 46 23
0.01067826 -0.055036757 0.84800005 99 87 63
0.015310711 -0.055036757 0.84800005 83 72 50
0.017626936 -0.055036757 0.84800005 79 68 48
0.022285637 -0.055101659 0.84900004 69 61 42
0.024604592 -0.055101659 0.84900004 61 53 34
0.04779416 -0.055101659 0.84900004 114 106 85
-0.00090393174 -0.052782699 0.84900004 96 86 59
0.0014133584 -0.052720532 0.84800005 93 82 60
0.0083718952 -0.052782699 0.84900004 81 68 49
0.045475204 -0.052782699 0.84900004 65 57 38
-0.0032190925 -0.050404303 0.84800005 93 86 58
-0.00090286706 -0.050404303 0.84800005 93 83 56
0.0014150252 -0.050463744 0.84900004 99 87 61
0.01300981 -0.050463744 0.84900004 86 75 53
0.022259386 -0.050404303 0.84800005 86 75 55
0.024604592 -0.050463744 0.84900004 77 66 46
0.026891839 -0.050404303 0.84800005 71 63 42
0.031524289 -0.050404303 0.84800005 55 48 29
-0.017116444 -0.048088077 0.84800005 101 85 60
-0.0078515429 -0.048088077 0.84800005 101 89 65
0.033840515 -0.048088077 0.84800005 61 54 35
-0.019455586 -0.045825832 0.84900004 104 88 62
-0.012498715 -0.045825832 0.84900004 105 91 65
-0.010179759 -0.045825832 0.84900004 111 99 75
-0.0078608021 -0.045825832 0.84900004 103 91 67
0.0037295837 -0.045771852 0.84800005 87 75 51
0.006045809 -0.045771852 0.84800005 72 61 41
0.019943161 -0.045771852 0.84800005 102 90 66
0.022259386 -0.045771852 0.84800005 84 72 50
0.031524289 -0.045771852 0.84800005 70 62 43
-0.031013796 -0.043455627 0.84800005 105 88 60
-0.028731415 -0.043506872 0.84900004 123 104 74
-0.026412457 -0.043506872 0.84900004 132 111 80
-0.021774543 -0.043506872 0.84900004 143 123 90
0.031561464 -0.043506872 0.84900004 64 55 38
-0.035688285 -0.041187916 0.84900004 100 84 58
-0.033369329 -0.041187916 0.84900004 128 111 81
-0.031013796 -0.041139401 0.84800005 145 125 98
-0.028697571 -0.041139401 0.84800005 147 126 97
0.024604592 -0.041187916 0.84900004 76 64 42
-0.040278699 -0.038823176 0.84800005 0 0 0
0.022285637 -0.038868956 0.84900004 75 64 42
-0.044964112 -0.03655 0.84900004 0 0 0
-0.042594925 -0.036506951 0.84800005 0 0 0
-0.040278699 -0.036506951 0.84800005 92 77 48
-0.037962474 -0.036506951 0.84800005 105 88 58
0.01067826 -0.036506951 0.84800005 77 65 43
0.01300981 -0.03655 0.84900004 89 77 55
0.015328767 -0.03655 0.84900004 89 77 55
0.017647723 -0.03655 0.84900004 84 73 53
0.019966681 -0.03655 0.84900004 84 73 53
-0.049602024 -0.034231044 0.84900004 112 100 74
0.01300981 -0.034231044 0.84900004 71 60 40
0.015328767 -0.034231044 0.84900004 73 65 44
0.017647723 -0.034231044 0.84900004 80 72 53
0.019943161 -0.034190726 0.84800005 77 69 50
-0.05423994 -0.031912088 0.84900004 0 0 0
-0.00090286706 -0.0318745 0.84800005 118 107 79
0.0014133584 -0.0318745 0.84800005 112 100 74
-0.00090286706 -0.029558275 0.84800005 112 98 71
0.0014150252 -0.029593131 0.84900004 107 95 69
0.0037295837 -0.029558275 0.84800005 85 75 50
0.006045809 -0.029558275 0.84800005 81 73 50
-0.061196811 -0.027274173 0.84900004 0 0 0
-0.0032190925 -0.02724205 0.84800005 104 90 63
-0.021748897 -0.024925824 0.84800005 94 80 54
-0.012498715 -0.024955217 0.84900004 102 90 64
-0.010179759 -0.024955217 0.84900004 106 94 68
-0.0078515429 -0.024925824 0.84800005 98 86 60
-0.0055353181 -0.024925824 0.84800005 99 87 61
-0.065757178 -0.022609599 0.84800005 0 0 0
-0.033330023 -0.022609599 0.84800005 94 80 51
-0.031050371 -0.022636261 0.84900004 108 94 65
-0.070472635 -0.020317305 0.84900004 111 96 75
-0.033369329 -0.020317305 0.84900004 103 89 62
-0.07270585 -0.017977148 0.84800005 0 0 0
-0.040278699 -0.015660923 0.84800005 112 98 69
-0.07965453 -0.013344698 0.84800005 0 0 0
-0.047283068 -0.013360434 0.84900004 96 82 53
-0.08902429 -0.0087225204 0.84900004 0 0 0
-0.063440949 -0.0040797954 0.84800005 112 98 72
-0.065834723 -0.0017656499 0.84900004 103 91 65
-0.070389628 0.0028688808 0.84800005 91 79 53
-0.07965453 0.0075013316 0.84800005 110 94 71
0.06874565 -0.094635256 0.85000002 95 80 61
0.066502109 -0.092422172 0.85100001 65 54 34
0.054815523 -0.087670192 0.85000002 81 68 49
0.066423967 -0.087670192 0.85000002 85 73 47
0.06874565 -0.085348509 0.85000002 89 77 51
0.052555591 -0.083124496 0.85100001 86 74 52
0.06874565 -0.083026819 0.85000002 89 79 52
0.050172146 -0.080705129 0.85000002 97 83 57
0.071150944 -0.080800071 0.85100001 93 82 60
0.036284652 -0.078475654 0.85100001 94 83 61
0.068826526 -0.078475654 0.85100001 77 71 49
0.0594589 -0.076061755 0.85000002 58 50 29
0.061780587 -0.076061755 0.85000002 69 61 42
0.066423967 -0.076061755 0.85000002 70 63 44
0.054815523 -0.073740065 0.85000002 72 60 36
0.024662554 -0.069177978 0.85100001 0 0 0
0.054815523 -0.069096692 0.85000002 69 53 30
0.054815523 -0.066775002 0.85000002 81 65 42
0.013025132 -0.062131625 0.85000002 111 97 71
0.01534682 -0.062131625 0.85000002 86 74 50
0.022338135 -0.062204719 0.85100001 64 56 33
0.010716037 -0.059880298 0.85100001 114 100 73
0.01534682 -0.059809938 0.85000002 113 101 75
0.017689295 -0.059880298 0.85100001 89 79 54
0.019990196 -0.057488248 0.85000002 67 59 36
0.0083916169 -0.055231459 0.85100001 74 62 38
0.019990196 -0.055166561 0.85000002 70 62 41
-0.0032266844 -0.052844871 0.85000002 94 84 57
0.00373838 -0.052844871 0.85000002 90 78 54
0.0060600685 -0.052844871 0.85000002 84 72 46
-0.014852579 -0.050582618 0.85100001 86 74 52
-0.01020374 -0.050582618 0.85100001 98 86 62
-0.0055483729 -0.050523184 0.85000002 102 90 66
0.003742778 -0.050582618 0.85100001 94 82 58
0.0060671978 -0.050582618 0.85100001 84 72 50
0.010716037 -0.050582618 0.85100001 79 67 45
0.033920325 -0.050523184 0.85000002 55 48 29
0.036284652 -0.050582618 0.85100001 50 43 25
-0.019478502 -0.048201498 0.85000002 109 93 67
0.036242016 -0.048201498 0.85000002 53 46 28
0.033920325 -0.045879807 0.85000002 58 50 31
-0.033447936 -0.043609362 0.85100001 0 0 0
-0.024121879 -0.043558117 0.85000002 133 113 80
0.01534682 -0.04123643 0.85000002 82 70 46
0.017668508 -0.04123643 0.85000002 75 63 39
0.019990196 -0.04123643 0.85000002 85 73 49
0.022311885 -0.04123643 0.85000002 73 61 39
0.026955262 -0.04123643 0.85000002 78 67 47
-0.042745613 -0.038960524 0.85100001 0 0 0
0.024633573 -0.03891474 0.85000002 68 57 37
0.026986973 -0.038960524 0.85100001 67 56 36
0.022338135 -0.034311686 0.85100001 63 56 37
0.008381757 -0.031949677 0.85000002 81 73 50
0.010716037 -0.031987265 0.85100001 66 58 37
0.020013716 -0.031987265 0.85100001 92 85 66
-0.058947198 -0.029627988 0.85000002 0 0 0
0.0083916169 -0.029662846 0.85100001 61 54 35
0.010716037 -0.029662846 0.85100001 65 60 40
0.020013716 -0.029662846 0.85100001 68 61 43
-0.063590579 -0.024984611 0.85000002 103 91 67
-0.019478502 -0.024984611 0.85000002 98 84 58
-0.017156815 -0.024984611 0.85000002 102 90 64
-0.014835126 -0.024984611 0.85000002 82 71 43
-0.0032266844 -0.024984611 0.85000002 103 91 65
-0.028765256 -0.022662923 0.85000002 111 97 70
-0.026474677 -0.022689587 0.85100001 99 85 59
-0.038052008 -0.018019546 0.85000002 113 99 72
-0.049660448 -0.011054482 0.85000002 93 79 52
-0.054303825 -0.0087327939 0.85000002 100 86 57
-0.093882844 -0.0064186482 0.85100001 143 128 105
-0.056692131 -0.0064186482 0.85100001 103 92 64
-0.093882844 -0.0040942286 0.85100001 129 114 83
-0.086909585 0.0028790301 0.85100001 132 115 87
-0.072963066 0.0052034496 0.85100001 95 84 62
0.066580251 -0.097185083 0.85200006 89 78 58
0.068988286 -0.097299144 0.85300004 90 78 56
0.061998636 -0.094969265 0.85300004 66 55 35
0.071234554 -0.094857931 0.85200006 92 77 56
0.057338871 -0.092639379 0.85300004 86 75 53
0.0595988 -0.09253078 0.85200006 87 75 53
0.061998636 -0.092639379 0.85300004 80 69 47
0.064253099 -0.09253078 0.85200006 86 73 54
0.068988286 -0.092639379 0.85300004 81 68 49
0.068907402 -0.090203628 0.85200006 66 53 34
0.071234554 -0.090203628 0.85200006 91 76 57
0.073561706 -0.090203628 0.85200006 87 72 49
0.075977929 -0.090309501 0.85300004 83 66 46
0.068988286 -0.087979615 0.85300004 79 67 43
0.052617345 -0.085549325 0.85200006 74 63 43
0.071234554 -0.085549325 0.85200006 88 76 52
0.07364805 -0.085649736 0.85300004 92 80 56
0.071318164 -0.08331985 0.85300004 86 76 51
0.031672988 -0.076240718 0.85200006 0 0 0
0.068907402 -0.076240718 0.85200006 72 65 46
0.059668753 -0.074000321 0.85300004 55 48 29
0.061998636 -0.074000321 0.85300004 69 61 42
0.064328514 -0.074000321 0.85300004 68 61 42
0.057271648 -0.073913567 0.85200006 59 51 30
0.027050398 -0.071670443 0.85300004 0 0 0
0.057338871 -0.071670443 0.85300004 63 52 32
0.059668753 -0.071670443 0.85300004 69 60 43
0.061925948 -0.071586415 0.85200006 65 57 38
0.064328514 -0.071670443 0.85300004 60 52 33
0.022390634 -0.064680792 0.85300004 65 57 36
0.055008989 -0.064680792 0.85300004 77 62 41
0.010728629 -0.062277813 0.85200006 109 95 69
0.017710082 -0.062277813 0.85200006 83 71 47
0.02006075 -0.06235091 0.85300004 74 63 41
0.0084113395 -0.060021028 0.85300004 93 79 53
0.02006075 -0.060021028 0.85300004 68 60 37
0.022364385 -0.059950665 0.85200006 68 60 37
0.0060743275 -0.057623513 0.85200006 89 77 51
0.0060814568 -0.055361263 0.85300004 72 60 36
-0.01022772 -0.053031381 0.85300004 96 84 62
-0.0055614277 -0.05296921 0.85200006 102 92 65
0.048019342 -0.053031381 0.85300004 46 38 19
0.054944497 -0.05296921 0.85200006 53 47 31
-0.01254288 -0.050642058 0.85200006 100 88 66
-0.0078885788 -0.050642058 0.85200006 103 91 67
0.0084014786 -0.050642058 0.85200006 76 64 42
0.038699809 -0.050701499 0.85300004 59 50 33
0.038654443 -0.048314907 0.85200006 53 46 30
-0.026536897 -0.046041735 0.85300004 105 89 63
0.036369927 -0.046041735 0.85300004 55 48 32
-0.028832939 -0.045987755 0.85200006 99 85 59
-0.03581439 -0.043660607 0.85200006 99 83 58
0.03400014 -0.043660607 0.85200006 60 53 35
-0.038141541 -0.041333456 0.85200006 90 76 49
0.029345838 -0.041333456 0.85200006 79 68 50
0.029380282 -0.039052088 0.85300004 73 62 44
0.022364385 -0.036679152 0.85200006 79 68 48
-0.052165601 -0.034392323 0.85300004 109 99 74
0.013071103 -0.032062441 0.85300004 56 48 29
0.015382932 -0.032024849 0.85200006 54 47 28
0.017710082 -0.032024849 0.85200006 86 79 60
0.013071103 -0.029732557 0.85300004 57 50 32
0.015382932 -0.029697699 0.85200006 55 48 30
0.017730867 -0.029732557 0.85300004 45 38 20
0.022390634 -0.029732557 0.85300004 86 81 62
-0.00090712582 -0.027370548 0.85200006 106 92 66
-0.00090819056 -0.025072793 0.85300004 97 87 60
0.010741222 -0.025072793 0.85300004 54 48 32
0.013055781 -0.025043398 0.85200006 74 68 52
0.015400985 -0.025072793 0.85300004 59 52 36
-0.024207015 -0.02274291 0.85300004 99 85 59
0.013071103 -0.02274291 0.85300004 78 72 56
-0.031160088 -0.020389097 0.85200006 99 85 59
0.013071103 -0.020413028 0.85300004 67 60 44
-0.035856426 -0.018083146 0.85300004 107 93 66
-0.045122996 -0.013407644 0.85200006 91 77 48
-0.061413053 -0.0040990398 0.85200006 113 101 75
-0.089338869 0.00055526214 0.85200006 116 101 72
-0.068474777 0.0028857961 0.85300004 82 72 47
-0.082357414 0.0075367149 0.85200006 129 113 88
-0.075375959 0.0075367149 0.85200006 94 82 60
0.064403929 -0.097413212 0.85400003 90 79 59
0.059738703 -0.095080599 0.85400003 91 79 57
0.071401775 -0.092747986 0.85400003 88 73 52
0.073820725 -0.092856593 0.85500002 71 56 35
0.071485385 -0.088185899 0.85500002 89 77 53
0.073820725 -0.088185899 0.85500002 95 83 59
0.076156072 -0.085850559 0.85500002 82 70 46
0.045796584 -0.081179865 0.85500002 100 86 59
0.048075635 -0.081084915 0.85400003 106 92 66
0.073820725 -0.081179865 0.85500002 84 72 48
0.071401775 -0.078752302 0.85400003 86 75 55
0.071485385 -0.076509178 0.85500002 75 67 48
0.029414725 -0.074087076 0.85400003 0 0 0
0.066814691 -0.07417383 0.85500002 70 63 44
0.066736542 -0.071754463 0.85400003 73 65 46
0.059808657 -0.069503143 0.85500002 72 63 46
0.062144004 -0.069503143 0.85500002 67 58 41
0.064479351 -0.069503143 0.85500002 61 53 34
0.022416884 -0.067089237 0.85400003 69 61 42
0.059738703 -0.067089237 0.85400003 76 67 50
0.062071316 -0.067089237 0.85400003 70 61 44
0.064403929 -0.067089237 0.85400003 70 62 43
0.066736542 -0.067089237 0.85400003 84 77 58
0.069150038 -0.067167796 0.85500002 68 61 42
0.015437096 -0.064832449 0.85500002 89 76 57
0.0084310612 -0.062497105 0.85500002 97 82 59
0.055073474 -0.062424008 0.85400003 57 46 26
0.059808657 -0.062497105 0.85500002 68 63 43
0.064403929 -0.062424008 0.85400003 75 70 50
0.0037559723 -0.057758778 0.85400003 78 66 42
0.057473313 -0.057826415 0.85500002 65 58 40
0.059808657 -0.057826415 0.85500002 66 60 44
0.062144004 -0.057826415 0.85500002 54 49 30
-0.0032456652 -0.055491067 0.85500002 81 70 48
-0.00090925524 -0.055426165 0.85400003 83 71 49
0.0014233586 -0.055426165 0.85400003 84 72 48
0.0037559723 -0.055426165 0.85400003 77 65 41
0.052740861 -0.055426165 0.85400003 58 50 31
0.055137966 -0.055491067 0.85500002 53 46 27
0.05740609 -0.055426165 0.85400003 55 50 31
-0.012587045 -0.053155724 0.85500002 96 85 65
-0.0079070972 -0.053093553 0.85400003 90 80 55
0.05740609 -0.053093553 0.85400003 49 43 27
-0.017257737 -0.05082038 0.85500002 88 76 54
0.041125894 -0.05082038 0.85500002 53 44 27
0.045796584 -0.05082038 0.85500002 52 43 28
-0.021928426 -0.048485033 0.85500002 102 86 60
0.041125894 -0.048485033 0.85500002 46 39 23
-0.031233234 -0.04609571 0.85400003 0 0 0
-0.024235392 -0.04609571 0.85400003 112 95 67
-0.021902779 -0.04609571 0.85400003 113 96 68
0.038790546 -0.04614969 0.85500002 58 51 35
0.036412567 -0.043763097 0.85400003 60 53 35
0.031784512 -0.039143652 0.85500002 61 52 35
-0.047561534 -0.036765255 0.85400003 105 91 65
0.024749497 -0.036765255 0.85400003 71 60 40
0.024749497 -0.034432642 0.85400003 63 56 37
0.027113821 -0.034472961 0.85500002 58 51 32
0.029449167 -0.034472961 0.85500002 58 51 32
-0.056891989 -0.032100029 0.85400003 0 0 0
0.022416884 -0.032100029 0.85400003 57 52 33
0.0014233586 -0.0274348 0.85400003 98 86 60
0.0037559723 -0.0274348 0.85400003 75 68 42
0.0060885861 -0.0274348 0.85400003 55 48 29
0.013101752 -0.027466925 0.85500002 53 48 29
0.015437096 -0.027466925 0.85500002 48 41 23
0.017772442 -0.027466925 0.85500002 61 54 38
0.020084269 -0.0274348 0.85400003 87 80 64
0.0014233586 -0.025102187 0.85400003 89 82 56
0.0037603704 -0.025131579 0.85500002 83 77 53
0.0060957158 -0.025131579 0.85500002 52 47 28
0.0084310612 -0.025131579 0.85500002 51 46 27
0.017772442 -0.025131579 0.85500002 55 48 32
0.020107787 -0.025131579 0.85500002 55 48 32
-0.021928426 -0.022796234 0.85500002 101 87 61
-0.0032456652 -0.022796234 0.85500002 75 67 44
0.015437096 -0.022796234 0.85500002 56 49 33
-0.02890062 -0.020436959 0.85400003 95 83 57
-0.0032456652 -0.020460889 0.85500002 59 54 34
-0.00091031997 -0.020460889 0.85500002 64 57 38
0.0014250252 -0.020460889 0.85500002 61 54 35
0.010766407 -0.020460889 0.85500002 48 42 26
0.015437096 -0.020460889 0.85500002 67 60 42
-0.075552896 -0.018104345 0.85400003 0 0 0
-0.038231075 -0.015771732 0.85400003 104 90 64
-0.047617223 -0.011119509 0.85500002 96 82 55
0.0014250252 -0.011119509 0.85500002 53 46 28
0.0037603704 -0.011119509 0.85500002 54 47 28
0.0060957158 -0.011119509 0.85500002 69 63 41
-0.091988787 -0.0087841637 0.85500002 0 0 0
-0.052226759 -0.0087738894 0.85400003 101 87 60
0.0014250252 -0.0087841637 0.85500002 72 61 43
-0.054623257 -0.0064488184 0.85500002 92 80 54
0.0014250252 -0.0064488184 0.85500002 73 62 42
-0.094213806 -0.0017760481 0.85400003 120 105 74
-0.063964643 -0.0017781279 0.85500002 88 76 52
-0.08965344 0.0028925624 0.85500002 130 115 84
-0.084883355 0.0052217934 0.85400003 104 87 59
0.066970982 -0.10009623 0.85700005 84 72 50
0.064554758 -0.09997943 0.85600007 78 67 47
0.071652599 -0.097755417 0.85700005 109 95 69
0.057540528 -0.095303275 0.85600007 89 81 58
0.073907062 -0.095303275 0.85600007 112 98 72
0.055202454 -0.092965201 0.85600007 82 69 50
0.052864376 -0.088289045 0.85600007 71 60 40
0.076245144 -0.088289045 0.85600007 84 73 51
0.050526299 -0.083612889 0.85600007 83 71 49
0.073993407 -0.083710566 0.85700005 84 72 48
0.043512069 -0.081274815 0.85600007 98 86 60
0.03419967 -0.079028949 0.85700005 0 0 0
0.069230914 -0.071922511 0.85600007 71 64 45
0.057607751 -0.069665715 0.85700005 60 47 28
0.066892833 -0.069584429 0.85600007 73 66 47
0.06931179 -0.069665715 0.85700005 69 62 44
0.057607751 -0.067324907 0.85700005 72 59 40
0.013117074 -0.064908281 0.85600007 0 0 0
0.017793227 -0.064908281 0.85600007 90 77 58
0.020131305 -0.064908281 0.85600007 72 61 43
0.05994856 -0.064984098 0.85700005 68 61 42
0.064554758 -0.064908281 0.85600007 72 65 46
0.066892833 -0.064908281 0.85600007 78 71 52
0.06931179 -0.064984098 0.85700005 57 50 31
0.057607751 -0.06264329 0.85700005 64 57 38
0.062216684 -0.062570199 0.85600007 67 62 42
0.066892833 -0.062570199 0.85600007 67 60 41
0.06931179 -0.06264329 0.85700005 66 59 40
0.0061099743 -0.060302485 0.85700005 104 90 64
0.05994856 -0.060302485 0.85700005 69 62 43
0.0014283587 -0.057961676 0.85700005 83 71 49
0.055202454 -0.057894047 0.85600007 59 52 33
-0.0055940654 -0.055620868 0.85700005 78 68 43
0.059878606 -0.055555973 0.85600007 55 49 33
-0.014957298 -0.053280063 0.85700005 93 85 64
0.05058533 -0.053280063 0.85700005 46 38 19
-0.019638913 -0.050939254 0.85700005 90 79 59
0.043512069 -0.050879817 0.85600007 46 37 20
0.048244521 -0.050939254 0.85700005 50 43 27
-0.026661338 -0.048598446 0.85700005 104 92 66
-0.024292151 -0.048541743 0.85600007 103 89 63
0.038881287 -0.043916833 0.85700005 55 48 32
-0.040658686 -0.04152751 0.85600007 0 0 0
0.031821687 -0.04152751 0.85600007 61 54 36
-0.045387801 -0.039235216 0.85700005 96 87 70
0.027145535 -0.036851358 0.85600007 71 60 42
0.029483611 -0.036851358 0.85600007 59 51 32
0.031858861 -0.036894407 0.85700005 76 68 49
-0.054751031 -0.034553599 0.85700005 107 100 82
0.031821687 -0.03451328 0.85600007 85 78 59
0.024807457 -0.032175202 0.85600007 59 54 35
0.024807457 -0.029837126 0.85600007 61 56 37
0.031858861 -0.029871983 0.85700005 52 47 28
0.03419967 -0.029871983 0.85700005 58 53 34
0.008440922 -0.02749905 0.85600007 52 46 30
0.010778998 -0.02749905 0.85600007 57 52 33
0.022469381 -0.02749905 0.85600007 42 36 20
0.022469381 -0.025160974 0.85600007 41 34 18
0.024836438 -0.025190368 0.85700005 53 46 30
-0.06871561 -0.022822896 0.85600007 0 0 0
-0.019638913 -0.02284956 0.85700005 94 82 56
-0.0079348739 -0.02284956 0.85700005 59 52 26
-0.0055875378 -0.022822896 0.85600007 69 62 36
-0.00091138465 -0.022822896 0.85600007 67 59 36
0.0014266919 -0.022822896 0.85600007 64 56 35
0.010778998 -0.022822896 0.85600007 51 45 29
0.017814014 -0.02284956 0.85700005 68 61 45
-0.073477492 -0.020508751 0.85700005 0 0 0
-0.026630228 -0.02048482 0.85600007 92 80 54
-0.0055940654 -0.020508751 0.85700005 54 49 29
0.0037691668 -0.020508751 0.85700005 65 58 39
0.008440922 -0.02048482 0.85600007 40 35 15
0.024807457 -0.02048482 0.85600007 50 41 24
0.027177246 -0.020508751 0.85700005 74 67 48
-0.033683762 -0.018167945 0.85700005 101 87 61
0.0084507819 -0.015827136 0.85700005 70 64 42
0.01079159 -0.015827136 0.85700005 64 57 38
0.013117074 -0.015808666 0.85600007 63 56 37
0.022495631 -0.015827136 0.85700005 58 51 35
-0.082744069 -0.01347059 0.85600007 0 0 0
-0.042996764 -0.01347059 0.85600007 106 92 65
0.013132398 -0.013486328 0.85700005 70 63 44
0.010778998 -0.011132514 0.85600007 52 44 23
0.013132398 -0.011145519 0.85700005 73 65 44
0.0037647686 -0.0087944372 0.85600007 79 68 48
0.0061099743 -0.0088047115 0.85700005 94 83 63
0.0037647686 -0.0064563607 0.85600007 95 82 63
0.0061099743 -0.006463903 0.85700005 77 66 44
-0.059363302 -0.0041182842 0.85600007 115 103 77
-0.092096366 0.00055786903 0.85600007 112 97 68
-0.09220396 0.0028993289 0.85700005 134 121 87
-0.071136683 0.0052401368 0.85700005 73 65 42
-0.085181534 0.0075809448 0.85700005 120 105 76
-0.080499917 0.0099217528 0.85700005 111 96 75
-0.078159109 0.0099217528 0.85700005 89 76 59
0.062434729 -0.10032982 0.85900003 75 64 44
0.069554426 -0.10044661 0.86000001 91 77 51
0.062434729 -0.097983554 0.85900003 92 81 61
0.05539592 -0.095637284 0.85900003 93 85 62
0.076512359 -0.093291014 0.85900003 77 61 36
0.052987892 -0.090838864 0.85800004 76 68 47
0.078858629 -0.088598467 0.85900003 84 73 51
0.050644353 -0.086151786 0.85800004 72 61 41
0.078766823 -0.086151786 0.85800004 76 64 42
0.048413403 -0.084003605 0.86000001 86 74 50
0.076601431 -0.084003605 0.86000001 80 68 46
0.038972024 -0.081559651 0.85900003 80 70 45
0.041270196 -0.081464708 0.85800004 82 72 45
0.076423287 -0.081464708 0.85800004 85 73 51
0.074079745 -0.079121165 0.85800004 87 75 51
0.074079745 -0.07677763 0.85800004 84 73 53
0.069392666 -0.074434087 0.85800004 72 65 46
0.071903422 -0.074607596 0.86000001 70 62 43
0.071819812 -0.072174571 0.85900003 80 72 53
0.071903422 -0.069909588 0.86000001 65 58 39
0.071736209 -0.067403466 0.85800004 51 44 25
0.010804183 -0.06505993 0.85800004 95 83 61
0.05774219 -0.065135755 0.85900003 71 60 42
0.062362049 -0.06505993 0.85800004 68 61 42
0.0061242334 -0.062789485 0.85900003 105 94 72
0.0037823608 -0.060513582 0.86000001 103 91 67
0.055331431 -0.060372852 0.85800004 53 45 24
0.05767497 -0.060372852 0.85800004 68 61 42
0.062362049 -0.060372852 0.85800004 63 58 38
0.064705588 -0.060372852 0.85800004 65 58 39
0.067205422 -0.060513582 0.86000001 73 66 47
-0.0032646456 -0.058164578 0.86000001 82 75 49
-0.00091351406 -0.058029313 0.85800004 89 78 56
0.064705588 -0.058029313 0.85800004 64 57 38
0.062434729 -0.055750675 0.85900003 59 53 37
0.060088459 -0.053404402 0.85900003 48 45 28
-0.029069828 -0.048711862 0.85900003 111 100 78
0.043613736 -0.048655152 0.85800004 46 39 23
0.046010833 -0.048711862 0.85900003 47 40 24
0.048413403 -0.048768573 0.86000001 50 44 28
-0.033762369 -0.046365593 0.85900003 103 95 74
0.041318297 -0.046365593 0.85900003 52 45 29
-0.038410146 -0.043968074 0.85800004 102 90 68
0.041270196 -0.043968074 0.85800004 54 47 31
0.034239575 -0.041624535 0.85800004 62 55 37
0.036668394 -0.041721564 0.86000001 58 51 33
0.034239575 -0.039280996 0.85800004 59 52 34
0.03431939 -0.037023559 0.86000001 78 71 52
0.034239575 -0.034593917 0.85800004 68 61 42
0.036668394 -0.034674559 0.86000001 57 48 31
0.02720896 -0.032250378 0.85800004 57 52 33
0.029586943 -0.032287966 0.85900003 49 44 25
0.031896036 -0.032250378 0.85800004 48 41 23
0.034279484 -0.032287966 0.85900003 61 54 35
0.036668394 -0.032325555 0.86000001 76 68 49
-0.061917622 -0.029941697 0.85900003 103 94 77
0.02720896 -0.029906839 0.85800004 56 50 34
0.029586943 -0.029941697 0.85900003 47 42 23
0.036583118 -0.029906839 0.85800004 73 66 47
0.024865419 -0.0275633 0.85800004 37 31 15
0.031970389 -0.02762755 0.86000001 56 51 32
-0.066610165 -0.025249153 0.85900003 0 0 0
0.027272385 -0.02527855 0.86000001 63 57 41
0.029621387 -0.02527855 0.86000001 53 48 29
0.031970389 -0.02527855 0.86000001 57 52 33
-0.01731829 -0.02287622 0.85800004 79 67 41
-0.014992203 -0.022902884 0.85900003 83 71 45
-0.012645932 -0.022902884 0.85900003 69 59 34
-0.010299662 -0.022902884 0.85900003 67 57 32
0.0037735649 -0.02287622 0.85800004 62 56 34
0.0061242334 -0.022902884 0.85900003 45 40 21
0.0084606437 -0.02287622 0.85800004 56 51 32
0.020201858 -0.022902884 0.85900003 61 54 38
0.02257438 -0.022929547 0.86000001 61 54 38
0.024894401 -0.022902884 0.85900003 63 56 40
0.029621387 -0.022929547 0.86000001 56 51 31
-0.024377286 -0.020556612 0.85900003 82 70 44
-0.022056663 -0.020580545 0.86000001 88 76 50
-0.010299662 -0.020556612 0.85900003 84 78 56
-0.0079441322 -0.020532683 0.85800004 57 50 31
0.0061171041 -0.020532683 0.85800004 53 46 27
0.017834801 -0.020532683 0.85800004 69 62 44
0.020201858 -0.020556612 0.85900003 62 55 39
0.02254813 -0.020556612 0.85900003 53 44 29
0.029586943 -0.020556612 0.85900003 76 69 50
-0.0079626506 -0.018231543 0.86000001 48 43 24
-0.0056136483 -0.018231543 0.86000001 48 42 26
-0.0032570532 -0.018189143 0.85800004 48 42 26
-0.00091351406 -0.018189143 0.85800004 43 38 19
0.0014300253 -0.018189143 0.85800004 82 77 58
0.0037779626 -0.018210342 0.85900003 61 56 36
0.0061313626 -0.018231543 0.86000001 55 48 29
0.0084606437 -0.018189143 0.85800004 55 48 29
0.010816775 -0.018210342 0.85900003 59 54 35
0.013147723 -0.018189143 0.85800004 68 61 43
0.015527371 -0.018231543 0.86000001 52 45 27
0.017876374 -0.018231543 0.86000001 63 56 38
0.020225376 -0.018231543 0.86000001 68 61 45
0.02254813 -0.018210342 0.85900003 50 41 26
0.024865419 -0.018189143 0.85800004 58 51 33
0.027272385 -0.018231543 0.86000001 61 54 36
-0.080687791 -0.015864071 0.85900003 0 0 0
-0.036108639 -0.015864071 0.85900003 100 86 60
-0.0056136483 -0.01588254 0.86000001 52 49 32
-0.00091564347 -0.01588254 0.86000001 42 36 20
0.0014316919 -0.015864071 0.85900003 49 44 25
0.0037735649 -0.015845604 0.85800004 56 51 31
0.0061242334 -0.015864071 0.85900003 66 60 38
0.015509318 -0.015864071 0.85900003 60 53 35
0.017855588 -0.015864071 0.85900003 57 50 32
0.020201858 -0.015864071 0.85900003 73 66 48
0.024865419 -0.015845604 0.85800004 62 56 40
0.0014316919 -0.0135178 0.85900003 64 59 40
0.0037779626 -0.0135178 0.85900003 79 72 54
0.0061242334 -0.0135178 0.85900003 57 51 29
0.0084705045 -0.0135178 0.85900003 56 50 28
0.010804183 -0.013502064 0.85800004 50 43 24
0.015509318 -0.0135178 0.85900003 62 55 37
0.017876374 -0.013533538 0.86000001 72 65 47
0.02254813 -0.0135178 0.85900003 54 45 28
-0.00091457873 -0.01117153 0.85900003 55 48 32
0.0084606437 -0.011158525 0.85800004 77 71 49
0.015491262 -0.011158525 0.85800004 65 57 38
0.017855588 -0.01117153 0.85900003 65 57 38
0.020225376 -0.011184535 0.86000001 68 61 42
0.02252188 -0.011158525 0.85800004 61 54 35
0.024894401 -0.01117153 0.85900003 65 58 39
-0.050244689 -0.0088355327 0.86000001 93 82 54
-0.00091564347 -0.0088355327 0.86000001 66 58 39
0.02257438 -0.0088355327 0.86000001 63 55 36
-0.00091564347 -0.0064865304 0.86000001 69 58 40
-0.061989699 -0.0017885263 0.86000001 103 93 68
-0.066610165 0.00055982417 0.85900003 104 94 67
-0.09007287 0.005252366 0.85900003 133 116 86
-0.087624468 0.0052462514 0.85800004 130 113 83
-0.092526734 0.0076074828 0.86000001 131 116 83
-0.09007287 0.0075986362 0.85900003 125 110 79
-0.0877266 0.0075986362 0.85900003 123 108 77
-0.073563233 0.0075897905 0.85800004 71 63 42
-0.09017773 0.0099564847 0.86000001 135 120 89
-0.083130717 0.0099564847 0.86000001 83 69 43
0.060228363 -0.098211676 0.86100006 70 58 36
0.079042234 -0.091156475 0.86100006 100 85 62
0.079042234 -0.081749551 0.86100006 86 74 52
0.076690502 -0.079397812 0.86100006 85 73 51
0.076690502 -0.077046081 0.86100006 78 67 45
0.074338764 -0.06763915 0.86100006 82 74 55
0.071987033 -0.065287411 0.86100006 56 49 30
0.067283563 -0.058232214 0.86100006 68 63 43
-0.0079719089 -0.05588048 0.86100006 77 70 51
0.053173162 -0.053528745 0.86100006 45 38 20
0.039062761 -0.041770075 0.86100006 56 49 33
0.03671103 -0.039418343 0.86100006 60 53 35
-0.050303116 -0.037066609 0.86100006 101 93 72
0.039062761 -0.030011408 0.86100006 60 53 34
0.034359295 -0.027659675 0.86100006 53 48 28
0.027304094 -0.022956207 0.86100006 53 48 29
-0.031489246 -0.018252742 0.86100006 94 80 54
-0.0079719089 -0.015901007 0.86100006 46 43 26
-0.0032684417 -0.015901007 0.86100006 42 39 22
-0.00091670814 -0.013549274 0.86100006 46 40 24
0.020248894 -0.013549274 0.86100006 66 59 41
0.024952359 -0.013549274 0.86100006 60 53 35
-0.087930851 -0.01119754 0.86100006 0 0 0
-0.045599647 -0.01119754 0.86100006 91 77 51
0.027304094 -0.01119754 0.86100006 59 54 35
-0.052654848 -0.0064940732 0.86100006 105 95 68
0.0084902262 -0.0064940732 0.86100006 79 68 48
0.022600627 -0.0064940732 0.86100006 61 54 35
0.024952359 -0.0064940732 0.86100006 50 43 24
-0.097337782 -0.0041423398 0.86100006 121 108 73
-0.097337782 -0.0017906061 0.86100006 114 99 70
-0.092634313 0.0052645947 0.86100006 131 116 83
-0.092634313 0.0099680619 0.86100006 130 115 82
-0.087930851 0.0099680619 0.86100006 125 110 79
0.06029832 -0.10068021 0.86200005 127 116 94
0.050880458 -0.08890789 0.86200005 69 61 42
0.048525993 -0.086553425 0.86200005 81 70 50
0.079225838 -0.084296636 0.86300004 81 69 47
0.036753666 -0.081844501 0.86200005 71 61 36
0.081488505 -0.081844501 0.86200005 81 69 47
0.074511446 -0.074867852 0.86300004 87 79 60
0.074425109 -0.072426639 0.86200005 81 72 55
0.076868646 -0.072510652 0.86300004 75 67 48
0.074511446 -0.07015346 0.86300004 76 67 50
0.020272413 -0.067717709 0.86200005 64 56 37
0.0085000871 -0.065363243 0.86200005 94 81 62
0.0037955551 -0.063081868 0.86300004 81 70 52
0.072154254 -0.063081868 0.86300004 55 48 29
-0.010347622 -0.05601028 0.86300004 86 79 63
-0.017399028 -0.053590916 0.86200005 91 83 64
0.062652782 -0.053590916 0.86200005 50 44 28
-0.022107957 -0.051236454 0.86200005 95 84 66
0.050880458 -0.051236454 0.86200005 47 41 25
0.050880458 -0.048881989 0.86200005 52 46 30
0.043817062 -0.046527524 0.86200005 49 42 26
0.04622509 -0.046581496 0.86300004 50 43 27
0.043817062 -0.044173054 0.86200005 58 51 35
0.04622509 -0.044224299 0.86300004 56 49 33
0.041510697 -0.041867103 0.86300004 60 53 37
0.039108131 -0.039464124 0.86200005 58 51 35
0.041510697 -0.039509907 0.86300004 55 48 32
0.04622509 -0.039509907 0.86300004 55 48 32
0.036796305 -0.037152711 0.86300004 55 48 30
0.027335806 -0.0276918 0.86200005 65 59 45
0.029690271 -0.0276918 0.86200005 63 57 41
0.036796305 -0.027723925 0.86300004 78 73 54
0.0343992 -0.025337335 0.86200005 52 47 28
0.032081913 -0.023009533 0.86300004 60 55 35
-0.019776409 -0.020652337 0.86300004 89 77 53
-0.017419213 -0.020652337 0.86300004 79 69 44
-0.015062016 -0.020652337 0.86300004 77 67 42
-0.012690097 -0.020628406 0.86200005 87 79 56
0.032044735 -0.020628406 0.86200005 61 56 36
0.029724715 -0.018295141 0.86300004 65 60 40
-0.010347622 -0.015937945 0.86300004 47 44 25
0.027335806 -0.015919475 0.86200005 59 53 37
-0.040943678 -0.01356501 0.86200005 95 81 54
0.0085000871 -0.0088560805 0.86200005 82 71 51
0.010854552 -0.0088560805 0.86200005 55 47 26
0.01322434 -0.0088663539 0.86300004 48 40 19
0.015581537 -0.0088663539 0.86300004 74 66 47
0.017938733 -0.0088663539 0.86300004 63 54 37
0.020272413 -0.0088560805 0.86200005 64 57 39
0.02498134 -0.0088560805 0.86200005 58 50 31
0.027367519 -0.0088663539 0.86300004 93 86 67
0.010867145 -0.0065091578 0.86300004 57 49 30
0.020295929 -0.0065091578 0.86300004 60 53 35
0.027367519 -0.0065091578 0.86300004 96 90 68
-0.057491552 -0.0041519618 0.86300004 109 97 71
0.0037955551 -0.0041519618 0.86300004 99 88 68
0.013209018 -0.0017926856 0.86200005 55 46 29
0.015563482 -0.0017926856 0.86200005 50 41 24
0.017917948 -0.0017926856 0.86200005 72 63 46
-0.095096372 0.00056177931 0.86200005 115 100 71
-0.095206693 0.0029196274 0.86300004 129 114 83
-0.08567851 0.0099796392 0.86200005 97 81 55
-0.076349124 0.0099912165 0.86300004 66 57 42
-0.081063516 0.012348413 0.86300004 89 78 60
0.02498134 0.01468857 0.86200005 105 95 68
0.027335806 0.01468857 0.86200005 102 90 64
0.025010323 0.017062806 0.86300004 99 89 62
0.025010323 0.019420002 0.86300004 95 83 57
0.0085099479 0.099564679 0.86300004 106 94 68
0.058145512 -0.098667949 0.86500007 89 77 55
0.053358436 -0.093834028 0.86400002 90 79 59
0.050998505 -0.091474101 0.86400002 74 67 48
0.081772104 -0.086854652 0.86500007 81 75 53
0.081772104 -0.084491998 0.86500007 84 73 53
0.079409443 -0.079766676 0.86500007 84 72 50
0.079409443 -0.077404015 0.86500007 78 66 44
0.081772104 -0.077404015 0.86500007 85 73 51
0.077046789 -0.075041361 0.86500007 76 68 47
0.025039304 -0.07259468 0.86400002 0 0 0
0.022679375 -0.070234746 0.86400002 0 0 0
0.077046789 -0.067953378 0.86500007 81 73 54
0.074597783 -0.065514892 0.86400002 65 57 38
0.074684128 -0.063228063 0.86500007 53 46 27
0.0014416924 -0.060865402 0.86500007 0 0 0
0.06987793 -0.060795039 0.86400002 68 61 42
-0.0056462856 -0.058502745 0.86500007 87 81 59
0.065233491 -0.056140084 0.86500007 55 50 31
-0.024519181 -0.051355328 0.86400002 96 89 71
0.060438216 -0.051355328 0.86400002 49 46 29
-0.031598963 -0.048995398 0.86400002 106 98 77
0.048638579 -0.046635471 0.86400002 51 45 29
-0.041086171 -0.04432679 0.86500007 94 87 69
0.048694875 -0.04432679 0.86500007 54 47 31
-0.043448832 -0.041964129 0.86500007 105 94 74
0.043918725 -0.041915618 0.86400002 54 47 31
0.043918725 -0.039555687 0.86400002 54 47 31
0.048638579 -0.039555687 0.86400002 55 48 32
0.039244238 -0.03723881 0.86500007 61 54 38
0.039198872 -0.034835834 0.86400002 59 52 34
0.046332218 -0.034876153 0.86500007 54 47 29
0.039198872 -0.032475904 0.86400002 63 55 36
0.041606899 -0.030150834 0.86500007 71 66 46
0.036881581 -0.025425516 0.86500007 65 60 41
0.03451892 -0.023062857 0.86500007 60 55 35
0.034479015 -0.020676266 0.86400002 76 71 52
-0.078888722 -0.018337538 0.86500007 0 0 0
-0.029239036 -0.01831634 0.86400002 90 75 52
-0.010359613 -0.01831634 0.86400002 49 44 24
-0.017459581 -0.015974879 0.86500007 63 57 35
-0.015096921 -0.015974879 0.86500007 58 53 33
-0.012719541 -0.015956411 0.86400002 53 48 28
-0.0032798301 -0.013596484 0.86400002 44 41 24
0.027399231 -0.013596484 0.86400002 64 58 42
-0.0032798301 -0.011236556 0.86400002 48 42 26
-0.095427342 -0.0088869026 0.86500007 0 0 0
-0.097789995 -0.0065242434 0.86500007 0 0 0
0.013254989 -0.0065242434 0.86500007 39 30 13
0.015617648 -0.0065242434 0.86500007 54 47 31
0.01795952 -0.0065167006 0.86400002 62 55 39
0.0014400255 -0.004156773 0.86400002 87 79 58
0.0061598811 -0.004156773 0.86400002 89 78 56
0.015617648 -0.0041615837 0.86500007 46 39 21
0.01795952 -0.004156773 0.86400002 59 52 34
0.020342967 -0.0041615837 0.86500007 59 52 34
0.022705626 -0.0041615837 0.86500007 59 51 32
0.025068285 -0.0041615837 0.86500007 62 54 35
0.020342967 -0.0017989248 0.86500007 71 62 45
0.022705626 -0.0017989248 0.86500007 50 39 21
0.025039304 -0.001796845 0.86400002 65 57 38
0.027399231 -0.001796845 0.86400002 66 59 40
0.013254989 0.00056373444 0.86500007 54 47 29
0.015599593 0.00056308275 0.86400002 61 49 33
0.017980307 0.00056373444 0.86500007 93 82 64
0.022705626 0.0029263939 0.86500007 67 56 38
0.025039304 0.0029230106 0.86400002 78 70 51
-0.095427342 0.0052890531 0.86500007 130 114 81
-0.069357812 0.0052829385 0.86400002 61 55 33
-0.095427342 0.0076517118 0.86500007 132 116 83
0.027430944 0.010014371 0.86500007 90 80 55
-0.093064681 0.012377031 0.86500007 132 117 84
-0.09059716 0.012362721 0.86400002 131 116 85
-0.088237233 0.012362721 0.86400002 127 113 84
-0.085877307 0.012362721 0.86400002 99 85 59
-0.08351738 0.012362721 0.86400002 80 68 46
0.025039304 0.012362721 0.86400002 105 95 68
0.027399231 0.012362721 0.86400002 102 90 64
-0.09059716 0.014722649 0.86400002 120 106 77
-0.088237233 0.014722649 0.86400002 130 116 90
-0.085976698 0.01473969 0.86500007 94 79 56
0.022679375 0.014722649 0.86400002 70 62 39
0.029759159 0.014722649 0.86400002 91 79 53
0.022705626 0.01710235 0.86500007 87 79 56
0.027399231 0.017082578 0.86400002 106 94 68
0.029793603 0.01710235 0.86500007 97 83 57
0.022705626 0.019465009 0.86500007 77 70 42
0.027399231 0.019442504 0.86400002 100 88 62
0.029793603 0.019465009 0.86500007 102 90 64
0.022705626 0.047816917 0.86500007 110 96 70
0.015617648 0.071443513 0.86500007 112 100 74
0.015599593 0.076080777 0.86400002 96 86 59
0.0061670104 0.099795423 0.86500007 93 81 55
0.010892329 0.099795423 0.86500007 107 97 70
0.0085198088 0.10203998 0.86400002 109 97 71
0.0085296696 0.10452074 0.86500007 109 95 69
0.010892329 0.10452074 0.86500007 106 92 66
0.0061670104 0.10924606 0.86500007 103 89 63
0.0038043514 0.11397137 0.86500007 101 87 61
0.0061598811 0.11383962 0.86400002 110 96 70
0.0014400255 0.11855947 0.86400002 103 89 63
0.0037999533 0.11855947 0.86400002 97 83 57
0.0061598811 0.11855947 0.86400002 102 88 62
-0.00092096697 0.12342201 0.86500007 108 94 68
-0.0032836262 0.12814733 0.86500007 114 100 74
-0.00092096697 0.12814733 0.86500007 119 105 79
-0.0032836262 0.13050999 0.86500007 111 96 73
0.077224933 -0.096527964 0.86700004 134 114 87
0.046385776 -0.084589675 0.86600006 75 63 39
0.081961177 -0.079951108 0.86700004 78 66 44
0.029828047 -0.077493504 0.86600006 0 0 0
0.0843293 -0.077582985 0.86700004 73 61 39
0.079593055 -0.07521487 0.86700004 81 70 50
0.079501249 -0.07276272 0.86600006 73 62 42
0.081961177 -0.072846748 0.86700004 67 56 34
0.077135853 -0.070397332 0.86600006 74 66 47
0.079593055 -0.068110503 0.86700004 75 67 46
-0.00092309638 -0.061006136 0.86700004 99 91 72
0.070120566 -0.058638014 0.86700004 59 54 34
-0.012763706 -0.056269892 0.86700004 96 89 73
-0.019845156 -0.053839598 0.86600006 91 84 68
0.053543709 -0.051533647 0.86700004 55 49 33
0.053543709 -0.049165525 0.86700004 50 44 28
0.05111656 -0.046743426 0.86600006 55 49 33
0.05111656 -0.044378035 0.86600006 59 53 37
0.046385776 -0.042012643 0.86600006 54 47 31
0.048807468 -0.042061158 0.86700004 58 51 35
0.051175587 -0.039693035 0.86700004 59 52 36
0.041703101 -0.037324917 0.86700004 72 65 49
0.044071224 -0.037324917 0.86700004 59 51 38
0.046385776 -0.037281863 0.86600006 53 46 30
0.048807468 -0.037324917 0.86700004 52 45 29
0.041655 -0.034916472 0.86600006 66 59 41
0.044020392 -0.034916472 0.86600006 67 60 42
0.048751168 -0.034916472 0.86600006 57 51 35
-0.060056798 -0.032551084 0.86600006 95 86 69
0.041703101 -0.032588672 0.86700004 62 57 37
0.044020392 -0.030185692 0.86600006 56 51 32
-0.064862385 -0.027852427 0.86700004 0 0 0
0.039289609 -0.0278203 0.86600006 56 49 30
0.039334979 -0.025484305 0.86700004 50 43 25
0.044071224 -0.025484305 0.86700004 56 49 31
0.046439346 -0.025484305 0.86700004 58 51 33
-0.071883753 -0.023089521 0.86600006 0 0 0
-0.076702997 -0.02074806 0.86700004 0 0 0
0.036924217 -0.020724129 0.86600006 48 41 23
0.041703101 -0.02074806 0.86700004 66 57 40
0.044071224 -0.02074806 0.86700004 62 51 33
-0.026941327 -0.018358739 0.86600006 86 74 50
-0.012748985 -0.018358739 0.86600006 60 54 32
0.032193437 -0.018358739 0.86600006 84 79 59
-0.034037501 -0.015993347 0.86600006 95 85 58
0.029828047 -0.015993347 0.86600006 61 56 37
0.032193437 -0.015993347 0.86600006 68 61 42
-0.0056528128 -0.013627958 0.86600006 52 49 32
0.029862491 -0.011275572 0.86700004 59 54 34
-0.003287422 -0.008897176 0.86600006 56 49 33
-0.003287422 -0.0065317852 0.86600006 49 42 26
0.029828047 -0.0065317852 0.86600006 72 66 44
0.036966857 -0.006539328 0.86700004 70 62 43
0.0085493913 -0.0041712062 0.86700004 68 57 35
0.013285635 -0.0041712062 0.86700004 40 32 13
0.027494369 -0.0041712062 0.86700004 68 61 42
0.010917514 -0.001803084 0.86700004 57 50 32
0.029828047 -0.0018010045 0.86600006 66 60 38
0.032230612 -0.001803084 0.86700004 62 56 34
0.034558829 -0.0018010045 0.86600006 62 56 34
-0.097903043 0.0005643862 0.86600006 110 95 64
0.022758124 0.00056503789 0.86700004 62 51 33
0.025126247 0.00056503789 0.86700004 65 58 39
0.027494369 0.00056503789 0.86700004 63 56 38
-0.097903043 0.0029297767 0.86600006 117 101 68
0.013285635 0.0029331599 0.86700004 62 53 36
0.015653757 0.0029331599 0.86700004 66 55 37
0.020390002 0.0029331599 0.86700004 63 50 33
0.027462656 0.0029297767 0.86600006 71 64 45
0.029862491 0.0029331599 0.86700004 68 60 39
0.025126247 0.0053012818 0.86700004 84 76 57
0.027462656 0.0052951672 0.86600006 71 63 44
0.025097266 0.007660558 0.86600006 86 78 57
0.027462656 0.007660558 0.86600006 73 65 44
-0.095647976 0.010037526 0.86700004 129 113 80
0.025126247 0.010037526 0.86700004 97 86 64
0.036966857 0.012405648 0.86700004 93 81 59
-0.093279853 0.01477377 0.86700004 126 113 81
0.032230612 0.01477377 0.86700004 92 80 54
0.034558829 0.014756729 0.86600006 81 69 43
-0.090911731 0.017141892 0.86700004 125 111 84
-0.088441484 0.01712212 0.86600006 121 109 87
0.032230612 0.017141892 0.86700004 97 83 57
0.034558829 0.01712212 0.86600006 100 86 60
0.025097266 0.021852901 0.86600006 103 91 65
0.027494369 0.021878136 0.86700004 106 94 68
0.022758124 0.024246257 0.86700004 83 75 52
0.025126247 0.024246257 0.86700004 111 99 75
0.027494369 0.024246257 0.86700004 105 93 67
0.022758124 0.026614379 0.86700004 97 86 64
0.032230612 0.0289825 0.86700004 89 77 51
0.025126247 0.033718746 0.86700004 88 76 54
0.027494369 0.033718746 0.86700004 91 79 55
0.029828047 0.033679854 0.86600006 93 81 57
0.020390002 0.036086865 0.86700004 96 83 64
0.022758124 0.036086865 0.86700004 88 76 54
0.025097266 0.036045246 0.86600006 89 77 55
0.020366482 0.047872197 0.86600006 111 97 71
0.025097266 0.047872197 0.86600006 101 87 61
0.020390002 0.050295599 0.86700004 105 91 65
0.022731874 0.050237589 0.86600006 101 87 61
0.025126247 0.050295599 0.86700004 97 83 57
0.027494369 0.057399966 0.86700004 109 95 69
0.027494369 0.059768084 0.86700004 106 92 65
0.020390002 0.062136207 0.86700004 104 90 64
0.025126247 0.062136207 0.86700004 101 87 60
0.027462656 0.06206454 0.86600006 89 75 48
0.029862491 0.062136207 0.86700004 113 99 73
0.020390002 0.066872455 0.86700004 111 97 70
0.013285635 0.069240578 0.86700004 89 77 51
0.013270311 0.071526103 0.86600006 97 87 62
0.015635703 0.073891491 0.86600006 97 87 62
0.01802188 0.073976815 0.86700004 84 72 48
0.013285635 0.076344937 0.86700004 99 89 62
0.018001093 0.076256886 0.86600006 87 77 50
0.013285635 0.078713059 0.86700004 95 85 58
0.015653757 0.078713059 0.86700004 96 86 59
0.010917514 0.081081182 0.86700004 98 84 58
0.013270311 0.080987662 0.86600006 98 84 58
0.015653757 0.081081182 0.86700004 85 73 47
0.013285635 0.085817426 0.86700004 97 83 57
0.0061812694 0.090553671 0.86700004 104 90 64
0.0085493913 0.090553671 0.86700004 115 101 75
0.010917514 0.090553671 0.86700004 115 101 74
