# .PCD v0.7 - Point Cloud Data file format
VERSION 0.7
FIELDS x y z rgb
SIZE 4 4 4 4
TYPE F F F F
COUNT 1 1 1 1
WIDTH 933
HEIGHT 1
VIEWPOINT 0 0 0 1 0 0 0
POINTS 933
DATA ascii
-0.068984523 -0.060875196 0.083512381 3.9590059e-39
-0.067097634 -0.060498551 0.082779959 3.866813e-39
-0.062999964 -0.060180049 0.082921445 3.5913052e-39
-0.020710617 -0.060111791 0.08339861 4.2352326e-39
-0.019961804 -0.060432393 0.082980394 4.3281443e-39
-0.015363559 -0.061656315 0.08396215 4.8791587e-39
-0.014303179 -0.061585445 0.084020168 5.06355e-39
-0.0084551033 -0.061034523 0.082782827 7.2740871e-39
-0.0059435181 -0.060820907 0.083471797 6.9978631e-39
-0.0038636525 -0.061249454 0.083301656 7.5506782e-39
-0.0012916723 -0.061020955 0.083222128 7.9194565e-39
0.0012749247 -0.061401807 0.083080299 7.64395e-39
0.0035416349 -0.061162192 0.083437845 6.9992981e-39
0.0057306383 -0.061713792 0.083258003 6.9989393e-39
0.0086394269 -0.061095104 0.083119877 6.7230727e-39
0.011176042 -0.06137725 0.084582724 6.0777089e-39
0.013842463 -0.061006289 0.084013812 5.3401425e-39
0.016047252 -0.061442457 0.083989114 5.5245323e-39
0.018627372 -0.061169963 0.083853841 5.9855105e-39
0.021162998 -0.061326094 0.083661757 5.8936736e-39
0.023449298 -0.061792914 0.08377929 5.8936736e-39
0.026560564 -0.060937375 0.083645031 6.1702619e-39
0.027737722 -0.062084407 0.084648609 6.1702619e-39
0.031261757 -0.062311649 0.083044827 6.0780662e-39
-0.088695832 -0.058694199 0.083934329 6.3517608e-39
-0.087050349 -0.058266774 0.084988922 6.1673724e-39
-0.080696173 -0.057905704 0.084046125 3.4983865e-39
-0.075621977 -0.058041718 0.082663596 3.0384873e-39
-0.07292673 -0.057504684 0.084125757 3.0384873e-39
-0.071860135 -0.058061123 0.084183931 2.9462917e-39
-0.068282001 -0.059533361 0.084327139 3.6827777e-39
-0.063724764 -0.058840733 0.084163465 3.4072698e-39
-0.061118819 -0.059038218 0.0834824 3.3150728e-39
-0.058576196 -0.058220554 0.084155701 3.2228758e-39
-0.057482719 -0.057670299 0.083626717 3.1306829e-39
-0.053630441 -0.058395516 0.083813056 2.9470119e-39
-0.050725162 -0.057759933 0.083473131 3.3150742e-39
-0.049574137 -0.058252756 0.08283025 3.6838567e-39
-0.044707298 -0.057679921 0.083155021 4.3281471e-39
-0.040567994 -0.057817552 0.083804086 4.3277912e-39
-0.038813818 -0.058233786 0.082851209 4.2355956e-39
-0.034092098 -0.057594027 0.084955215 4.3281471e-39
-0.030948639 -0.058294784 0.084383257 4.327787e-39
-0.028805638 -0.059112746 0.083194323 4.5118195e-39
-0.026095003 -0.058171459 0.084678784 4.5118195e-39
-0.023753613 -0.058607776 0.084208824 4.6040151e-39
-0.022133604 -0.058795765 0.083355889 4.326708e-39
-0.018454909 -0.058389552 0.082801044 5.5241694e-39
-0.016480088 -0.058130234 0.082508534 6.9071024e-39
-0.013692896 -0.058659613 0.082821168 7.182969e-39
-0.011294061 -0.058826745 0.083001636 6.8145467e-39
-0.0086633358 -0.058787417 0.083121255 6.9982191e-39
-0.0060510049 -0.059060335 0.083508499 6.2606554e-39
-0.0038630962 -0.058696482 0.083852656 6.2606582e-39
-0.0010603726 -0.058644056 0.083619647 6.9067465e-39
0.0014093816 -0.058936689 0.082960993 7.1836921e-39
0.0033746015 -0.058439415 0.083296545 7.1833306e-39
0.0057065189 -0.058703281 0.083127178 6.8149054e-39
0.0089241723 -0.058605596 0.083701469 6.4464872e-39
0.011293224 -0.058045737 0.084442973 5.8933134e-39
0.013665929 -0.05866747 0.083827659 5.9855091e-39
0.015978117 -0.058814298 0.083725728 5.893312e-39
0.018626695 -0.058775779 0.083447948 5.9855091e-39
0.020715391 -0.058601875 0.084238149 5.893675e-39
0.022896066 -0.058840442 0.083813392 6.1709807e-39
0.0258165 -0.05947087 0.082747877 6.0780662e-39
-0.090447612 -0.055630885 0.082978658 6.7194616e-39
-0.088784784 -0.056546547 0.083773047 6.4439537e-39
-0.080612399 -0.056195337 0.084200479 4.2355928e-39
-0.079812057 -0.056664001 0.084366411 4.0519204e-39
-0.076261282 -0.057174008 0.082709819 3.0384873e-39
-0.072070211 -0.056884743 0.084334433 2.9462917e-39
-0.066232108 -0.055582844 0.08361131 3.7749733e-39
-0.063801318 -0.056065012 0.084238581 2.9462917e-39
-0.060398251 -0.055489797 0.084211692 3.4061908e-39
-0.059137687 -0.05670711 0.084571496 3.0384873e-39
-0.055578005 -0.056027304 0.083328754 2.7619018e-39
-0.053731762 -0.056100015 0.084013142 3.3143539e-39
-0.051389668 -0.056159414 0.083481416 4.2352298e-39
-0.048288345 -0.056399118 0.083606735 4.2355914e-39
-0.04596933 -0.056017954 0.083485626 4.6958492e-39
-0.043893076 -0.055856824 0.083203807 4.2352298e-39
-0.041312862 -0.056420192 0.084508091 4.3274283e-39
-0.039103445 -0.056880724 0.083136506 4.235234e-39
-0.035723109 -0.056109928 0.084135257 4.2352312e-39
-0.033672042 -0.056053363 0.084224835 4.2352312e-39
-0.031905957 -0.056669295 0.084194444 4.234511e-39
-0.028331034 -0.056327116 0.084418602 4.7869659e-39
-0.025740949 -0.057112463 0.08461497 4.787326e-39
-0.02344198 -0.056437686 0.084167555 4.9717173e-39
-0.021359621 -0.056276836 0.083182327 5.7085648e-39
-0.019040829 -0.056447685 0.083051398 6.5383227e-39
-0.016499238 -0.055925865 0.083138756 7.183332e-39
-0.01331377 -0.056058232 0.083499357 6.9063822e-39
-0.011273732 -0.056195725 0.083627932 7.182969e-39
-0.0088371886 -0.056363471 0.083622374 7.2748059e-39
-0.0062788725 -0.056200214 0.083462201 7.1811726e-39
-0.0036265056 -0.05626668 0.083943695 6.1681025e-39
-0.0011552572 -0.056297619 0.084160589 6.9067451e-39
0.0010898635 -0.056499232 0.083604135 7.5524746e-39
0.0035844035 -0.05598674 0.083075613 7.5524746e-39
0.0061508836 -0.056527071 0.083057508 7.4602762e-39
0.0089690462 -0.055945516 0.084112406 6.0773446e-39
0.011209825 -0.055959892 0.083681121 5.8014765e-39
0.012990738 -0.056456923 0.083258688 5.9858678e-39
0.015973516 -0.056650553 0.083012126 5.709641e-39
0.018673791 -0.056302298 0.084056236 5.7092823e-39
0.023423895 -0.057133414 0.082782745 6.0791452e-39
-0.090399235 -0.053641871 0.082739919 6.8112971e-39
-0.08917626 -0.053862832 0.083741225 6.7198203e-39
-0.0736854 -0.054080009 0.083870709 4.6040137e-39
-0.065723464 -0.05449985 0.083549768 3.3143553e-39
-0.063762426 -0.054228734 0.084839188 2.9462917e-39
-0.060769785 -0.05377299 0.084550746 3.5902234e-39
-0.058767229 -0.053546883 0.084473215 3.6827777e-39
-0.056481026 -0.053293228 0.08426924 3.9586443e-39
-0.053769842 -0.053582247 0.083734065 4.8798804e-39
-0.051505234 -0.053931396 0.083553158 5.7089222e-39
-0.048768122 -0.053921323 0.083758175 5.2483028e-39
-0.046216484 -0.05385796 0.083469339 5.4323353e-39
-0.04375245 -0.053513497 0.083679952 5.3401383e-39
-0.040861767 -0.054040004 0.082743354 5.5245309e-39
-0.039928466 -0.052825317 0.082666129 5.708562e-39
-0.035974622 -0.052734923 0.083467931 6.0776977e-39
-0.033391204 -0.053469852 0.083747916 5.7089194e-39
-0.031257942 -0.053206846 0.083035573 6.1695374e-39
-0.028430784 -0.053599786 0.082976103 6.261733e-39
-0.026391568 -0.053307161 0.083809204 6.0773432e-39
-0.023519432 -0.053904593 0.083663359 6.5383227e-39
-0.021391027 -0.053761836 0.083651982 6.354293e-39
-0.018864222 -0.053537324 0.083988354 5.8933176e-39
-0.016358746 -0.053977031 0.083487675 6.9993037e-39
-0.013632829 -0.053543035 0.083296649 7.7365044e-39
-0.011577576 -0.053925116 0.083231665 7.9205355e-39
-0.0089787282 -0.05355233 0.083333172 7.8283413e-39
-0.0061801276 -0.053786907 0.083737098 8.2882376e-39
-0.0034213152 -0.053847499 0.083849482 6.6287205e-39
-0.001365299 -0.053673506 0.083898403 7.3677232e-39
0.001383543 -0.053740311 0.082823291 7.8290615e-39
0.0037183696 -0.053652246 0.083266459 7.3680848e-39
0.006478291 -0.053690374 0.084047146 6.4464872e-39
0.008876022 -0.053777795 0.083329886 5.9855077e-39
0.011171106 -0.053872705 0.083318591 5.6174454e-39
0.014712706 -0.053256631 0.083736718 5.1571931e-39
0.015579596 -0.054655507 0.084150434 5.4337758e-39
0.018415913 -0.053976148 0.082592309 5.2490286e-39
-0.090410888 -0.051011957 0.084068865 6.8112971e-39
-0.089437105 -0.051802617 0.084089145 6.9034927e-39
-0.069743305 -0.051663592 0.083138883 5.0639115e-39
-0.06061843 -0.052161332 0.084785849 3.9586457e-39
-0.057746947 -0.051482957 0.084980473 4.143037e-39
-0.055815637 -0.051854126 0.084853426 4.4185421e-39
-0.053275835 -0.051936138 0.083864927 5.2483028e-39
-0.050951868 -0.051317137 0.08399222 5.1557484e-39
-0.048897687 -0.051432099 0.084271088 5.5241708e-39
-0.046558928 -0.05141915 0.083706439 5.3401383e-39
-0.044244699 -0.051584899 0.08431416 5.8007577e-39
-0.041182749 -0.051139008 0.083745539 5.4319766e-39
-0.038409501 -0.051273797 0.083566613 5.708562e-39
-0.036484499 -0.051069822 0.084119841 6.9063822e-39
-0.033754949 -0.051331718 0.083673216 6.5379612e-39
-0.030876676 -0.051284548 0.083676241 5.8011164e-39
-0.028671864 -0.051229186 0.084351316 5.8011164e-39
-0.026239887 -0.051433105 0.084237613 5.6170853e-39
-0.023863694 -0.051643632 0.084445789 7.2758863e-39
-0.021151012 -0.051625509 0.084283292 6.6308799e-39
-0.018840378 -0.051389627 0.084051684 6.6305225e-39
-0.016442742 -0.0514431 0.083726577 6.8145551e-39
-0.013716377 -0.051077753 0.083491057 7.4599203e-39
-0.011657178 -0.051353071 0.083974518 7.7361456e-39
-0.0084731709 -0.051076487 0.083253913 7.8283413e-39
-0.0061328611 -0.05150694 0.083521686 8.1967636e-39
-0.0036174522 -0.051111151 0.083766185 7.5521159e-39
-0.0013377368 -0.05152313 0.083441354 7.8290629e-39
0.0012152381 -0.05126071 0.083087236 7.4602804e-39
0.0041569094 -0.051505566 0.084146857 6.4464858e-39
0.0062092254 -0.051209077 0.083801858 6.0777047e-39
0.0085811736 -0.051493555 0.08304166 5.8014765e-39
0.010442482 -0.051526338 0.083192252 5.6174482e-39
0.013519466 -0.051414777 0.083346605 4.9735207e-39
-0.090549022 -0.048955083 0.083617769 6.8112971e-39
-0.089085899 -0.049016207 0.084663384 6.5354318e-39
-0.08664234 -0.048945144 0.084611148 5.9837028e-39
-0.056861058 -0.047893226 0.084050775 3.7742517e-39
-0.053269859 -0.048650343 0.083736017 4.0508386e-39
-0.051730976 -0.048112869 0.084091455 4.5118167e-39
-0.045164526 -0.04993099 0.08459723 4.9717159e-39
-0.041614532 -0.049173165 0.084722519 6.1688199e-39
-0.038745932 -0.049072791 0.084475152 6.4457655e-39
-0.036113411 -0.049087375 0.084413566 7.3673603e-39
-0.033926591 -0.049563855 0.084612325 6.9067451e-39
-0.031122418 -0.04868478 0.084659599 6.35393e-39
-0.029456541 -0.04913703 0.08478155 5.6167251e-39
-0.022717878 -0.048906982 0.084965751 6.4461285e-39
-0.021072894 -0.048575237 0.084886163 6.2617386e-39
-0.017832279 -0.048522562 0.083942503 6.3539343e-39
-0.016734635 -0.04872863 0.084506832 6.6305211e-39
-0.013678059 -0.048850548 0.083636373 7.3680848e-39
-0.011287315 -0.048739702 0.083810702 7.6443115e-39
-0.0083370507 -0.048531294 0.082984723 7.8290629e-39
-0.0063867271 -0.049011346 0.083361819 7.8287042e-39
-0.003653639 -0.048519719 0.083032876 7.3680862e-39
-0.0012605621 -0.04856791 0.08390788 6.814911e-39
0.0013618626 -0.048473701 0.084272116 5.8011192e-39
0.0039079934 -0.048738256 0.083913632 5.7092823e-39
0.0056332061 -0.048699472 0.083227322 5.8011178e-39
0.0086675109 -0.048737239 0.083665274 5.4337772e-39
0.010805614 -0.048638627 0.083405077 4.6976527e-39
-0.09047322 -0.046262354 0.083075367 6.9038514e-39
-0.088638596 -0.046176158 0.082724094 6.1673724e-39
-0.087355956 -0.046578221 0.082834601 6.0751768e-39
-0.038348123 -0.046871565 0.084896192 6.9063822e-39
-0.021206006 -0.046652377 0.084847607 6.3539343e-39
-0.019942522 -0.045614261 0.084768385 6.2613827e-39
-0.016471164 -0.046227925 0.084056705 6.5383241e-39
-0.013457043 -0.04615305 0.083368622 6.7227168e-39
-0.011084939 -0.046455175 0.083288006 7.0914993e-39
-0.0085759014 -0.046207815 0.082934968 7.275892e-39
-0.0065994989 -0.046178784 0.083817281 6.7230769e-39
-0.0034813196 -0.04581232 0.083482012 6.7230769e-39
-0.0011910195 -0.046441734 0.084003247 6.0780648e-39
0.0012990872 -0.046222627 0.084065437 5.5252512e-39
0.0037294556 -0.046262968 0.08324524 5.4334143e-39
0.0061875805 -0.046654582 0.082830802 5.6170867e-39
0.0090740323 -0.046510637 0.084006697 4.7894896e-39
0.01047495 -0.046837956 0.082613975 4.5132643e-39
-0.090474039 -0.044025254 0.083676718 6.8120159e-39
-0.088877052 -0.043749526 0.083570689 5.9829811e-39
-0.025680989 -0.042906925 0.084966302 6.2613827e-39
-0.024026051 -0.043197367 0.084693387 6.169543e-39
-0.021920152 -0.043150611 0.084596649 5.9847944e-39
-0.018682892 -0.043719318 0.084200539 5.984793e-39
-0.016175553 -0.043730583 0.083560444 6.6301596e-39
-0.013697766 -0.043745134 0.083513677 6.9993009e-39
-0.011057784 -0.043763097 0.083442122 6.9074682e-39
-0.0091222767 -0.043809012 0.08376351 6.5386856e-39
-0.0057757241 -0.043559663 0.083742559 6.3546531e-39
-0.0033213 -0.043790959 0.084023476 6.2624575e-39
-0.001409004 -0.043846767 0.083994158 5.7096424e-39
0.0010783548 -0.043800678 0.083464779 5.5252512e-39
0.0038765168 -0.043835159 0.082791351 5.3412201e-39
0.006379114 -0.043751743 0.083006784 5.2497447e-39
0.0081062391 -0.044512011 0.084690779 4.5132643e-39
-0.090627581 -0.041241102 0.083857916 6.7187413e-39
-0.089846916 -0.040965699 0.084503412 6.2584848e-39
-0.032092601 -0.040092986 0.084820807 6.999654e-39
-0.025852598 -0.040983722 0.084628567 5.8929575e-39
-0.023664227 -0.04145363 0.084320068 6.7223594e-39
-0.021069728 -0.041090444 0.084104449 6.4461313e-39
-0.01841847 -0.041091915 0.083792306 6.1702619e-39
-0.016484072 -0.041015334 0.083875678 6.4464872e-39
-0.01368724 -0.041640781 0.083678015 6.4468473e-39
-0.011137662 -0.041016202 0.083930828 6.0784264e-39
-0.0089070005 -0.041292969 0.083882235 6.1702619e-39
-0.0061161169 -0.041057777 0.084705137 5.3408613e-39
-0.0038475515 -0.041177616 0.084334858 5.7092851e-39
-0.0013384407 -0.041323416 0.083734743 5.7096438e-39
0.0013828968 -0.041253578 0.083142154 5.3412201e-39
0.0040278039 -0.041271545 0.083074443 4.7884064e-39
0.006227619 -0.040847838 0.083888195 4.4199854e-39
0.0087693334 -0.041217957 0.083059117 3.9597289e-39
0.011250541 -0.040155411 0.082711816 3.6835036e-39
-0.091039442 -0.038783155 0.083715215 6.7187427e-39
-0.089640692 -0.03838395 0.08479315 5.9833441e-39
-0.031763982 -0.03848369 0.084769286 6.2624547e-39
-0.028759932 -0.039007396 0.084626772 5.249023e-39
-0.026153747 -0.038500223 0.084313698 5.2483084e-39
-0.023319261 -0.039170351 0.083690397 6.3546559e-39
-0.021089261 -0.038457233 0.083673939 5.3412215e-39
-0.018700557 -0.038962375 0.083516151 5.6178083e-39
-0.016401183 -0.039064601 0.083586149 5.4334157e-39
-0.013524335 -0.038888391 0.084363714 5.2490258e-39
-0.01119121 -0.038880788 0.084383696 5.0649947e-39
-0.0086655347 -0.038904462 0.084348798 4.6962136e-39
-0.0063940869 -0.038549535 0.084312759 4.6043781e-39
-0.0037797098 -0.038793985 0.08423128 5.064636e-39
-0.0012422891 -0.038687557 0.083835557 5.5256099e-39
0.001230287 -0.038952515 0.08361569 5.1568288e-39
0.0038728472 -0.038840625 0.08390858 3.9593674e-39
0.006342181 -0.038688276 0.083389245 3.4983893e-39
0.0087463856 -0.038666423 0.083139583 3.5913052e-39
0.010319524 -0.039330848 0.082642362 3.7756978e-39
-0.091418557 -0.036355451 0.083842613 6.8112985e-39
-0.031538177 -0.036014024 0.084367089 5.6178097e-39
-0.028445221 -0.036226328 0.08399345 4.9731592e-39
-0.025969401 -0.036314312 0.083114535 4.9724403e-39
-0.023984373 -0.036393546 0.083403751 4.9728005e-39
-0.0213334 -0.036194164 0.084513068 4.2359515e-39
-0.018799463 -0.036312651 0.08374133 4.143037e-39
-0.015992934 -0.036223542 0.084134333 4.4192666e-39
-0.013789098 -0.036363684 0.084566355 4.4207057e-39
-0.011125759 -0.036344212 0.084534451 4.0522833e-39
-0.0087168952 -0.036154989 0.084578224 3.4994711e-39
-0.0062175444 -0.03631733 0.08427678 3.7756978e-39
-0.0035712626 -0.036227237 0.084027022 4.2363144e-39
-0.0011709301 -0.036386717 0.083920054 4.6962094e-39
0.0013299395 -0.036228288 0.083925568 4.7887651e-39
0.0037466986 -0.0361045 0.084282331 4.0522819e-39
0.006290508 -0.036510248 0.084076248 3.130327e-39
0.008778465 -0.036347546 0.083571315 3.5913052e-39
0.010955232 -0.03600752 0.083140358 3.407274e-39
0.013477936 -0.035758216 0.082713947 3.3154399e-39
-0.091887489 -0.033442777 0.083410338 6.81166e-39
-0.035757918 -0.03363391 0.084641412 5.5266917e-39
-0.033566672 -0.033732891 0.084630542 5.3423033e-39
-0.031080313 -0.033789583 0.083923966 4.880965e-39
-0.02893642 -0.033927869 0.083309695 4.696215e-39
-0.026788175 -0.03344813 0.08298967 4.4199868e-39
-0.023522928 -0.033912353 0.084206358 3.7753335e-39
-0.020854911 -0.03337115 0.084466077 3.7753349e-39
-0.018743122 -0.033752002 0.084001414 3.959366e-39
-0.016243998 -0.033531018 0.084191151 4.2366732e-39
-0.013786526 -0.033642925 0.084411532 3.6842211e-39
-0.011233016 -0.033783849 0.084407754 3.4076342e-39
-0.0086567597 -0.033738486 0.084354162 2.9466574e-39
-0.0061385394 -0.03383575 0.08412043 3.038853e-39
-0.0036848374 -0.033904236 0.084038079 3.7753335e-39
-0.00099094352 -0.033782441 0.083803862 4.4203428e-39
0.0010800107 -0.033951242 0.083811007 4.1441174e-39
0.0035990754 -0.033697225 0.083743013 3.5913038e-39
0.00629263 -0.034095652 0.083915189 3.8678906e-39
0.0089301616 -0.0337409 0.083765358 4.3285101e-39
0.011047512 -0.033817496 0.08383359 3.6838609e-39
0.013539609 -0.033658944 0.083416097 3.4994697e-39
0.01518032 -0.033022258 0.082607225 3.3154385e-39
-0.092925042 -0.031032855 0.083229527 6.9956883e-39
-0.091794595 -0.031252686 0.084137186 6.7201818e-39
-0.038958959 -0.030441485 0.084985942 4.3281513e-39
-0.035783097 -0.031107662 0.084592842 4.5129027e-39
-0.034134571 -0.031421665 0.084545992 4.3288716e-39
-0.031476066 -0.03082029 0.083776906 3.8682522e-39
-0.028582135 -0.031551827 0.083713256 3.7749776e-39
-0.025960252 -0.030771147 0.084855467 3.4991081e-39
-0.023621544 -0.030820098 0.084574997 3.4069125e-39
-0.021064011 -0.03117694 0.084288776 3.4994669e-39
-0.018882217 -0.031252302 0.083994694 3.5916653e-39
-0.016279466 -0.031253185 0.08399564 3.5920254e-39
-0.013551365 -0.031393826 0.08417809 3.2232429e-39
-0.011041648 -0.031189576 0.084328078 3.3154385e-39
-0.0088722743 -0.031118033 0.084418103 3.1306885e-39
-0.0062832106 -0.031214379 0.084074683 3.3147169e-39
-0.0036385474 -0.031051924 0.084311232 3.3150756e-39
-0.0014873485 -0.031183137 0.083454989 4.1433971e-39
0.00090415194 -0.031062953 0.083901227 4.144116e-39
0.0033903983 -0.031544194 0.083368167 4.3285073e-39
0.0067426818 -0.031002322 0.083586775 4.3288688e-39
0.0093590729 -0.031159071 0.084146395 4.2359557e-39
0.011341094 -0.031263217 0.083830029 4.0515658e-39
0.013756085 -0.031077461 0.083796911 3.6835008e-39
0.016285468 -0.031136699 0.083452657 3.407274e-39
0.018664051 -0.030840471 0.082993716 3.2235988e-39
-0.092923649 -0.028513804 0.08360789 6.9038528e-39
-0.09205693 -0.029144756 0.084057681 6.4439579e-39
-0.088023722 -0.028015479 0.082500815 4.604734e-39
-0.043470558 -0.029441163 0.084797353 4.1444775e-39
-0.041064721 -0.028940162 0.084689036 4.235597e-39
-0.038578998 -0.028951308 0.084586509 3.9597275e-39
-0.036395475 -0.028534302 0.084299803 3.9593702e-39
-0.033752713 -0.028964864 0.083661281 4.0512043e-39
-0.031276692 -0.028803 0.083670214 4.1437601e-39
-0.028647736 -0.029471552 0.084736586 3.3154385e-39
-0.026343126 -0.028794955 0.084515341 3.4069139e-39
-0.023632701 -0.028886272 0.084142983 3.3150784e-39
-0.021328008 -0.028572343 0.084047303 3.2228828e-39
-0.018597273 -0.028868686 0.084103636 3.3150784e-39
-0.016280007 -0.028579121 0.083546288 3.0388516e-39
-0.013531695 -0.028742898 0.08436124 2.946656e-39
-0.011346446 -0.028573921 0.084291518 3.1306871e-39
-0.0087521868 -0.028743269 0.084472887 3.0381314e-39
-0.0060268887 -0.028619189 0.083860286 3.4069139e-39
-0.0035971296 -0.028936433 0.083723031 3.6824218e-39
-0.0011596486 -0.028546656 0.083557561 4.8802405e-39
0.0014550628 -0.028883979 0.083654754 4.8809608e-39
0.0037209562 -0.028765799 0.083375573 4.9731564e-39
0.0064583607 -0.028764049 0.08319065 4.9731578e-39
0.008624509 -0.028953789 0.083027817 4.8806034e-39
0.011555997 -0.028845709 0.083781056 4.2352354e-39
0.014006436 -0.028780242 0.084096417 3.6831393e-39
0.016150171 -0.028777655 0.083720714 3.5913024e-39
0.018746605 -0.028827922 0.083985172 3.3154343e-39
0.021129187 -0.028599428 0.083098263 3.1310445e-39
0.023521453 -0.027767599 0.083184481 3.2225226e-39
-0.092817649 -0.02633428 0.084007494 6.7198231e-39
-0.091341138 -0.025562039 0.084601365 6.2606512e-39
-0.05287829 -0.02500659 0.084990859 5.9869496e-39
-0.048292249 -0.025339866 0.084476277 6.3546531e-39
-0.045939967 -0.025938615 0.084695198 5.8940337e-39
-0.043923616 -0.025833093 0.084637173 5.8014807e-39
-0.041242424 -0.026133817 0.084319629 5.6174496e-39
-0.038860027 -0.026263267 0.084071986 5.0653548e-39
-0.036189087 -0.026095072 0.083996974 5.6178069e-39
-0.033605859 -0.026239622 0.083849303 5.8014765e-39
-0.031265251 -0.025919987 0.083780624 5.5252512e-39
-0.0284114 -0.02594801 0.08453355 4.6047368e-39
-0.026024399 -0.026289871 0.084427506 3.7756964e-39
-0.023756843 -0.026049392 0.083982594 3.3150784e-39
-0.021186344 -0.026135942 0.083964854 3.0384915e-39
-0.018735744 -0.026408229 0.083966821 3.0384915e-39
-0.016161995 -0.026143828 0.083989635 3.1310473e-39
-0.013812229 -0.026253892 0.083968624 2.946656e-39
-0.011444881 -0.026206693 0.084113419 2.9462959e-39
-0.0086551327 -0.026269149 0.084008798 3.1306871e-39
-0.006377548 -0.026093392 0.084050305 3.3147197e-39
-0.0037766211 -0.02624109 0.083858617 3.7746174e-39
-0.0012098713 -0.026234534 0.08428438 5.1568274e-39
0.0016102523 -0.026371192 0.083582506 5.5256113e-39
0.0038386588 -0.026295079 0.083473682 5.065352e-39
0.0063120662 -0.026242325 0.083150268 4.8802433e-39
0.0085958289 -0.026286669 0.082952894 4.6040151e-39
0.011451175 -0.026329845 0.083507083 4.603655e-39
0.01355909 -0.026302751 0.084143385 4.7880463e-39
0.016161446 -0.026313156 0.084196515 4.8798804e-39
0.018677445 -0.026283797 0.083986253 5.064273e-39
0.021329446 -0.026100444 0.084273458 4.9727977e-39
0.023809908 -0.026140412 0.083622992 4.236313e-39
0.026487768 -0.025655266 0.083641842 4.9727991e-39
0.028517121 -0.025544457 0.083426751 4.7884064e-39
0.075689137 -0.025271807 0.083206296 4.6965765e-39
-0.092563257 -0.024630111 0.083458692 5.9837028e-39
-0.091739565 -0.02354715 0.083938733 5.9851461e-39
-0.089878671 -0.022666305 0.083066046 4.6962108e-39
-0.052791726 -0.023388108 0.084819667 5.8025583e-39
-0.0511062 -0.023449879 0.084531568 5.9862321e-39
-0.048739448 -0.023484478 0.084199488 6.5386828e-39
-0.046128169 -0.023446029 0.08396066 6.7230741e-39
-0.043811161 -0.023935258 0.084119871 6.2624575e-39
-0.041224457 -0.023597274 0.083583519 6.0787851e-39
-0.038644943 -0.023713522 0.083502121 5.7096424e-39
-0.03626214 -0.023595802 0.083417937 5.8936736e-39
-0.033638172 -0.023793947 0.083929852 5.709641e-39
-0.031103387 -0.023699865 0.084229521 5.4337744e-39
-0.028925406 -0.023755483 0.083931759 4.9735179e-39
-0.02618302 -0.02384761 0.083699226 4.1441188e-39
-0.023977919 -0.023814 0.083678521 3.5913052e-39
-0.0215354 -0.023708165 0.083793215 3.3154385e-39
-0.018729277 -0.0237574 0.084045917 3.2228842e-39
-0.016122345 -0.02365214 0.083726257 3.4076342e-39
-0.013724438 -0.023622271 0.083621502 3.3154385e-39
-0.010845104 -0.023634059 0.084141664 3.1306885e-39
-0.0089072855 -0.023706105 0.083721168 3.2228828e-39
-0.0063646007 -0.023777509 0.083471276 3.407274e-39
-0.0035579321 -0.023756983 0.083665185 3.9590087e-39
-0.0013137107 -0.023664022 0.08431787 5.0649933e-39
0.0012487383 -0.023886792 0.084078655 5.0649933e-39
0.003908813 -0.023775905 0.083790362 4.7884092e-39
0.0062817717 -0.023756497 0.083980255 5.1568316e-39
0.0089446893 -0.023597173 0.083782464 4.7880477e-39
0.011360942 -0.023813801 0.083388649 4.6043739e-39
0.013888364 -0.02387421 0.083496541 4.9724375e-39
0.015913287 -0.023622457 0.083782829 5.2486643e-39
0.018775593 -0.024180969 0.08418937 6.0777047e-39
0.021197215 -0.02391215 0.084127985 5.6170867e-39
0.02322684 -0.023831334 0.084599793 5.8014779e-39
0.026273115 -0.023875991 0.084455289 6.3546503e-39
0.028828306 -0.023906475 0.084367007 6.2624547e-39
0.030832412 -0.024048293 0.083938248 5.9858664e-39
0.033529572 -0.023589816 0.083532944 6.7223524e-39
0.036509223 -0.023483921 0.08351212 5.3404984e-39
0.038159646 -0.023553371 0.083207406 5.432694e-39
0.041387267 -0.023610871 0.083701044 5.8929519e-39
0.044072609 -0.023389289 0.083436064 5.5248896e-39
0.046585143 -0.02277774 0.083946899 5.708562e-39
0.050860226 -0.022602662 0.082852036 6.8149096e-39
0.054372504 -0.022786738 0.084391996 6.722714e-39
0.056589842 -0.023236584 0.084325537 5.9858678e-39
0.05818326 -0.023226241 0.083038397 5.6170853e-39
0.06122816 -0.023034593 0.082665116 5.7092809e-39
0.066849135 -0.022818942 0.084075093 5.3405012e-39
0.068390608 -0.023018705 0.083251081 5.6163678e-39
0.071584299 -0.023288345 0.084158763 5.8940323e-39
0.074179292 -0.023810344 0.084256485 5.6178069e-39
0.076156698 -0.023498971 0.083386496 5.52597e-39
0.078331321 -0.022631951 0.083165169 6.3546475e-39
-0.090922959 -0.02161471 0.083116136 5.7096438e-39
-0.089007579 -0.021253711 0.083795033 4.6962122e-39
-0.086731404 -0.021031743 0.083932392 4.788405e-39
-0.084032536 -0.020432334 0.083690539 5.9855021e-39
-0.081566766 -0.020428274 0.084525689 6.1702549e-39
-0.079012044 -0.020699253 0.084669366 5.8936722e-39
-0.076528378 -0.020820415 0.084494121 5.3405012e-39
-0.074196212 -0.020645859 0.084040351 4.8798818e-39
-0.071082518 -0.020365993 0.084694505 4.5121783e-39
-0.069208011 -0.021045636 0.084670313 4.8802405e-39
-0.066184103 -0.020515429 0.084378794 4.604734e-39
-0.063612163 -0.0205613 0.08420033 4.2359515e-39
-0.061167944 -0.020351576 0.084562741 4.6962122e-39
-0.05853752 -0.020953063 0.084437914 4.8802447e-39
-0.055906095 -0.020832898 0.084368952 4.9727977e-39
-0.05358503 -0.020768153 0.084157139 5.5256085e-39
-0.051263552 -0.020933585 0.083743677 6.2624547e-39
-0.0488123 -0.021334682 0.084002897 5.9858692e-39
-0.046266243 -0.02126861 0.083754517 6.0777047e-39
-0.043592189 -0.021435436 0.083305702 6.1702619e-39
-0.041404188 -0.021414626 0.083413228 6.078425e-39
-0.038871612 -0.021560298 0.083410449 5.7096424e-39
-0.036122818 -0.021393012 0.083247595 5.8933134e-39
-0.033744793 -0.021464236 0.083245367 5.3412201e-39
-0.031246254 -0.021455571 0.083361767 5.1575491e-39
-0.028741181 -0.021364249 0.083152086 5.1571917e-39
-0.026371844 -0.021236951 0.083337925 4.0512043e-39
-0.023689719 -0.021109747 0.083287753 3.867892e-39
-0.021143826 -0.021416103 0.083366193 3.4998298e-39
-0.018859757 -0.021024495 0.083239861 3.4998298e-39
-0.016088426 -0.021183871 0.083238438 3.6842211e-39
-0.013931131 -0.021101812 0.08309418 3.4994697e-39
-0.011252671 -0.021185171 0.083259426 3.4994683e-39
-0.0084832851 -0.021141335 0.083389714 3.4072726e-39
-0.0059495224 -0.021152087 0.083468854 3.4072726e-39
-0.0037623935 -0.021111051 0.083568178 3.8671732e-39
-0.0015161373 -0.021307375 0.084105797 4.4199854e-39
0.001511436 -0.02117339 0.084498025 4.7880491e-39
0.0034119093 -0.021484192 0.08460629 4.4199854e-39
0.0064824773 -0.021153687 0.08440958 4.8798846e-39
0.0088530062 -0.02147953 0.084039539 4.6036564e-39
0.011150744 -0.021553228 0.083932482 5.0653534e-39
0.013876609 -0.021432944 0.083839022 4.695852e-39
0.016143259 -0.021160232 0.084221534 5.1561127e-39
0.018745331 -0.021608347 0.083582826 4.3274255e-39
0.021406651 -0.021295596 0.083130434 4.695129e-39
0.023517296 -0.021163521 0.083830461 5.7089222e-39
0.026565582 -0.021325307 0.083640382 6.6301596e-39
0.028757963 -0.021263238 0.084271699 7.0911364e-39
0.031034453 -0.021376446 0.083856873 7.367003e-39
0.033731755 -0.020967118 0.083915167 7.9194579e-39
0.036470082 -0.020968985 0.083276711 7.9190992e-39
0.039231051 -0.020826481 0.082750954 8.6563027e-39
0.040770892 -0.020706292 0.082838319 9.1176409e-39
0.044057041 -0.022231713 0.084749937 5.9851489e-39
0.04604109 -0.021794444 0.084311001 6.4461271e-39
0.04957594 -0.021923207 0.084711626 6.2617358e-39
0.050637543 -0.022377726 0.084118694 6.722714e-39
0.053785637 -0.021604529 0.084794506 6.9067451e-39
0.056496125 -0.021260915 0.084391758 6.9071024e-39
0.05877028 -0.021171486 0.083833501 6.9071038e-39
0.061148047 -0.02144596 0.083636388 6.4461243e-39
0.063862085 -0.021083733 0.084270872 6.262096e-39
0.066065952 -0.021145653 0.084195465 5.8007591e-39
0.068620354 -0.021188404 0.084126487 5.6163664e-39
0.070991471 -0.021142395 0.084302187 5.9858678e-39
0.073496364 -0.021404352 0.084666096 6.0780634e-39
0.076313853 -0.021311447 0.084328629 5.893312e-39
0.078723215 -0.021204328 0.083527103 6.3539314e-39
0.081275403 -0.020682372 0.082910404 5.8014793e-39
-0.090248846 -0.019086316 0.082738727 4.5118195e-39
-0.088574216 -0.019289762 0.083304785 4.7884078e-39
-0.086224206 -0.018698679 0.083395734 5.1571889e-39
-0.08377137 -0.018734477 0.08355131 6.446483e-39
-0.08119864 -0.018687353 0.083584808 5.5256085e-39
-0.078604303 -0.018701106 0.083649114 4.9724375e-39
-0.076476529 -0.018589444 0.083534829 4.6040151e-39
-0.07390067 -0.018563725 0.083860591 4.6043753e-39
-0.07131128 -0.018557869 0.083885111 4.7891239e-39
-0.068716444 -0.018561438 0.084072538 4.7891253e-39
-0.066228174 -0.018628245 0.083917879 4.3277898e-39
-0.063794285 -0.018911673 0.083667606 4.3281457e-39
-0.061336804 -0.018693559 0.083321609 4.1437559e-39
-0.058893722 -0.018872041 0.083344288 4.4199854e-39
-0.056056291 -0.018962743 0.083196133 4.6043753e-39
-0.053850267 -0.019144597 0.08321739 5.3412187e-39
-0.051315207 -0.01896956 0.082957231 5.524891e-39
-0.048993189 -0.019440267 0.083116755 5.8936722e-39
-0.046368968 -0.019007692 0.082918823 5.5252512e-39
-0.043366123 -0.019233342 0.082990363 5.5256113e-39
-0.041557759 -0.019460848 0.082839936 5.6174496e-39
-0.038759753 -0.018662505 0.083747864 5.0646346e-39
-0.036642876 -0.018683694 0.083433829 4.3281485e-39
-0.033927098 -0.019568222 0.082827613 4.604734e-39
-0.030681223 -0.018584169 0.084459931 4.1441188e-39
-0.029410079 -0.01829268 0.084164023 3.867892e-39
-0.020952836 -0.019607127 0.08283136 3.5920254e-39
-0.01788643 -0.019827783 0.082882047 3.9608079e-39
-0.015754124 -0.019333055 0.082694829 3.7764153e-39
-0.013396405 -0.019154843 0.082742698 3.7756964e-39
-0.01065854 -0.018908959 0.082974523 3.5916639e-39
-0.0084192222 -0.019234924 0.083386779 3.4072726e-39
-0.0064174589 -0.018674109 0.08358717 3.6831407e-39
-0.0037082874 -0.018648822 0.083925322 4.1433985e-39
-0.0011162566 -0.018849591 0.084262133 4.5118195e-39
0.0010492225 -0.018546758 0.084515825 4.9724375e-39
0.0037062026 -0.018817231 0.084597558 5.1564673e-39
0.0060922452 -0.018611457 0.084596105 4.9724375e-39
0.0087314527 -0.018873857 0.084537111 4.3277884e-39
0.011238028 -0.018491376 0.084537685 4.6965695e-39
0.013653793 -0.019088076 0.084584907 4.880602e-39
0.016278517 -0.019008555 0.084627315 5.3401411e-39
0.018686958 -0.019086707 0.084707364 4.8795216e-39
0.021331584 -0.018853016 0.08449512 4.7873246e-39
0.023776611 -0.018465264 0.084496975 6.5379626e-39
0.026098542 -0.019115472 0.0837363 6.5383213e-39
0.028367082 -0.01833652 0.08409059 8.5648287e-39
0.031251032 -0.01893107 0.084625155 9.4860661e-39
0.033546697 -0.018568682 0.084504858 1.022363e-38
0.035958447 -0.01875918 0.083920516 1.0038878e-38
0.038982328 -0.018911775 0.083299309 1.022291e-38
0.04130473 -0.01885668 0.083519809 1.0315825e-38
0.043930948 -0.018501664 0.083608225 9.9474016e-39
0.04650056 -0.01844319 0.083365113 9.6711735e-39
0.048962168 -0.018222407 0.083921656 9.9466813e-39
0.051062822 -0.018128864 0.083133332 1.0315825e-38
0.053594258 -0.018342152 0.082721367 9.4864235e-39
0.056396026 -0.018571015 0.083808407 7.8279797e-39
0.058753312 -0.019151211 0.084651351 8.1045666e-39
0.061457198 -0.018800508 0.084237382 8.1964021e-39
0.063631624 -0.018472446 0.084042363 7.6435899e-39
0.066136613 -0.018644745 0.084371142 6.5383227e-39
0.068730474 -0.018576797 0.084419906 5.893312e-39
0.071282752 -0.018665385 0.084300101 5.8014779e-39
0.073815629 -0.019436104 0.084656745 5.9858678e-39
0.076380499 -0.018942196 0.084483877 6.0780634e-39
0.078982085 -0.018710323 0.084129259 6.0780648e-39
0.081138737 -0.0187093 0.083140418 5.9858706e-39
-0.080514833 -0.016925689 0.083082393 5.1564687e-39
-0.079009041 -0.016590027 0.082864717 5.524891e-39
-0.07619597 -0.016450537 0.082946181 5.7096438e-39
-0.073528461 -0.016695898 0.083131574 6.0780662e-39
-0.070934489 -0.016508549 0.083055004 4.7891295e-39
-0.068680577 -0.016401282 0.083567344 4.1441202e-39
-0.066649362 -0.01697671 0.083702765 4.5118223e-39
-0.063898399 -0.017111182 0.08303123 4.4203442e-39
-0.060878441 -0.016221078 0.083530128 4.4199868e-39
-0.059661366 -0.015643165 0.084091812 4.4199868e-39
-0.056847468 -0.015495852 0.083470225 4.3277912e-39
-0.053859424 -0.015701095 0.084858857 4.4199868e-39
-0.045697257 -0.016177125 0.084857821 4.3281513e-39
-0.043506704 -0.015151545 0.084286153 4.1434027e-39
-0.041856289 -0.015194118 0.083480179 4.4199868e-39
-0.038356785 -0.015847251 0.084189057 3.7746174e-39
-0.036537118 -0.016070567 0.084058404 3.867892e-39
-0.033426113 -0.016469024 0.083903804 4.3288702e-39
-0.030996557 -0.016037613 0.084039122 3.867892e-39
-0.028676605 -0.016362738 0.084044933 3.5920254e-39
-0.02625137 -0.015941124 0.084229186 3.407274e-39
-0.024324991 -0.015917897 0.084694356 3.2225226e-39
-0.0084769186 -0.016431209 0.083888248 3.4998284e-39
-0.0063995677 -0.01648044 0.083224043 3.683498e-39
-0.0036907461 -0.016169287 0.083500139 4.3274297e-39
-0.0010652293 -0.016148277 0.083895728 4.5118195e-39
0.0011758858 -0.016185833 0.084237084 5.2483056e-39
0.0039373152 -0.01623759 0.084514245 5.8936708e-39
0.0061658816 -0.016282331 0.08429689 5.1568274e-39
0.0088663213 -0.016249055 0.083958209 4.6043739e-39
0.011294243 -0.016183322 0.08458928 5.8018367e-39
0.013735141 -0.015958369 0.084545404 5.5252484e-39
0.015953867 -0.016221419 0.084767275 6.354293e-39
0.017812937 -0.016063588 0.084757268 6.3542916e-39
0.024557192 -0.016513303 0.084511921 7.551397e-39
0.02689431 -0.016714847 0.084071919 7.5517544e-39
0.029012978 -0.016277542 0.084703125 8.4726331e-39
0.031404447 -0.016358275 0.084853455 9.394588e-39
0.033676684 -0.016255369 0.084711701 1.0684611e-38
0.036237288 -0.016345693 0.084407128 1.105339e-38
0.038931433 -0.016529383 0.08395604 1.0961554e-38
0.041368172 -0.016023768 0.083747856 9.5789806e-39
0.043753099 -0.016461935 0.084054321 9.8552074e-39
0.046211474 -0.016347701 0.084455207 9.6708133e-39
0.048086889 -0.016374098 0.084491953 1.0960836e-38
0.051118847 -0.016526546 0.083700076 1.0315824e-38
0.053521372 -0.016170062 0.083733521 9.6708147e-39
0.056218766 -0.016139179 0.083509699 8.6570215e-39
0.059330687 -0.016180512 0.083521388 9.4860633e-39
0.061256196 -0.01613332 0.084167115 8.1964035e-39
0.063669853 -0.016174618 0.08425121 7.5517544e-39
0.066248 -0.016217884 0.084536731 6.8149096e-39
0.068795145 -0.016146468 0.084402911 6.4464872e-39
0.071457587 -0.016604532 0.083615221 6.5383227e-39
0.073740795 -0.01579044 0.084423982 6.1699003e-39
0.076605864 -0.016412539 0.084568806 5.893675e-39
0.078725375 -0.016058883 0.083989307 5.893675e-39
0.081377082 -0.016235694 0.083190233 6.3542944e-39
0.083076313 -0.01562991 0.082775921 7.4609979e-39
-0.071963534 -0.014609493 0.083623886 3.9600891e-39
-0.067981973 -0.014271259 0.083187401 3.6835008e-39
-0.066902541 -0.014834389 0.083246291 3.5913052e-39
-0.055979364 -0.014867514 0.083681643 4.3277912e-39
-0.051102407 -0.013357259 0.084563047 4.6043781e-39
-0.048241805 -0.013674353 0.084217288 4.420347e-39
-0.046641629 -0.013784389 0.083734393 4.2359557e-39
-0.04358878 -0.013747253 0.083468109 3.867892e-39
-0.041752674 -0.013683248 0.082958162 3.9590087e-39
-0.039286979 -0.013954032 0.083501831 3.7749747e-39
-0.034072701 -0.014078259 0.082649857 4.3288702e-39
-0.032223217 -0.014771223 0.082791984 4.1444789e-39
-0.02848492 -0.014145743 0.083896965 3.4076342e-39
-0.025995078 -0.013391212 0.083494246 3.2232429e-39
-0.024110541 -0.013545461 0.083042651 2.946656e-39
-0.021000504 -0.013359492 0.083826862 3.5913052e-39
-0.018387049 -0.013560385 0.084825993 4.6043767e-39
-0.016582038 -0.01284381 0.084155917 4.1444789e-39
-0.014618441 -0.012778983 0.08442831 3.7756964e-39
-0.0076835752 -0.014388453 0.083070457 3.5923814e-39
-0.0063461512 -0.013900595 0.082974538 3.4079901e-39
-0.0034409037 -0.013851326 0.083176538 4.2355914e-39
-0.00127822 -0.013846601 0.083050668 4.8798818e-39
0.0011680742 -0.013681616 0.083528191 4.8798804e-39
0.0036676668 -0.013835572 0.084013738 5.0639129e-39
0.0063729645 -0.013618284 0.084189601 5.8933106e-39
0.0086928969 -0.013566618 0.08431787 6.4457655e-39
0.011251878 -0.013564896 0.084308378 5.893312e-39
0.013704208 -0.01355271 0.084405772 6.3546503e-39
0.016024809 -0.013624307 0.084600732 6.9992981e-39
0.018736027 -0.013347661 0.084558509 7.3677218e-39
0.020994322 -0.01341471 0.084686175 6.9067437e-39
0.023997789 -0.013377705 0.084453732 8.5651902e-39
0.02586142 -0.013576536 0.084457681 8.7492214e-39
0.028682079 -0.013923189 0.084202074 9.5786205e-39
0.031722374 -0.013536545 0.084517784 9.9466841e-39
0.034194876 -0.013717634 0.08463046 9.8541298e-39
0.036685601 -0.013430012 0.084690258 9.5779016e-39
0.03862974 -0.013918944 0.084585071 9.7633719e-39
0.041193306 -0.014304174 0.084769309 9.9477645e-39
0.043383338 -0.014708807 0.083889432 8.9343301e-39
0.046030793 -0.014099007 0.084473304 8.6573845e-39
0.048462167 -0.013437777 0.084760405 8.8414142e-39
0.051353417 -0.014002954 0.084329508 8.74922e-39
0.053804126 -0.013922911 0.083927751 8.932891e-39
0.056378696 -0.013613571 0.083916649 8.0116535e-39
0.058929816 -0.013959559 0.084471993 8.1042065e-39
0.061310768 -0.01350324 0.084533773 7.5513928e-39
0.06389109 -0.013942739 0.084528953 6.9071052e-39
0.066196792 -0.013822308 0.08437974 6.1706206e-39
0.068600141 -0.013482556 0.084275171 5.9858692e-39
0.071094088 -0.013593813 0.083999678 6.1702591e-39
0.073888935 -0.013652384 0.083617583 6.0777047e-39
0.076601446 -0.013620436 0.084062509 6.1699017e-39
0.07881958 -0.013590978 0.083474979 6.354293e-39
0.081164755 -0.013749499 0.083262816 6.9996624e-39
0.08326973 -0.013760658 0.082890742 7.1836949e-39
-0.046842135 -0.012050793 0.083290577 3.9600877e-39
-0.023696177 -0.011162311 0.082949698 2.9466574e-39
-0.021324404 -0.011434585 0.082715407 3.2232429e-39
-0.018286115 -0.01175567 0.083413027 3.8682522e-39
-0.016231569 -0.01116677 0.083692133 3.6838609e-39
-0.013741781 -0.010972038 0.083799563 3.5913052e-39
-0.010902502 -0.011341181 0.083868131 3.6834994e-39
-0.0088332295 -0.010842934 0.083965406 4.327787e-39
-0.0067946836 -0.011106119 0.084708184 4.9717159e-39
-0.003347028 -0.011784833 0.082602262 4.6040137e-39
-0.00090779958 -0.012308402 0.082798183 5.1564673e-39
0.0011544935 -0.011948307 0.082741946 5.9847846e-39
0.0039077257 -0.011545274 0.082996249 6.2613701e-39
0.0066458271 -0.011276383 0.083241671 6.2610127e-39
0.0087299729 -0.011405637 0.083673269 6.1688185e-39
0.011222409 -0.011202666 0.083598688 6.2613743e-39
0.013759864 -0.01123147 0.083590008 6.7223524e-39
0.016280957 -0.011243613 0.084230661 6.9989379e-39
0.018880803 -0.011094471 0.084276214 6.6305155e-39
0.021166239 -0.011203517 0.084238172 6.8149068e-39
0.023672566 -0.01084399 0.08397384 7.3673631e-39
0.026090018 -0.011062976 0.083718732 8.1045722e-39
0.028851254 -0.011100468 0.083956666 8.1045708e-39
0.031364005 -0.010942749 0.084243268 8.0116563e-39
0.033642128 -0.01116984 0.084401183 8.2882418e-39
0.036111746 -0.010957289 0.08431948 8.1042093e-39
0.038939878 -0.011084324 0.084492296 8.0123752e-39
0.041610755 -0.010496153 0.084490247 7.6443101e-39
0.043427683 -0.010543145 0.084758937 6.8152697e-39
0.04679554 -0.010593748 0.084782183 8.104568e-39
0.048968472 -0.011104112 0.084599748 8.1045666e-39
0.05127348 -0.01098327 0.084451534 8.1038491e-39
0.053570997 -0.010893389 0.084460869 8.0120137e-39
0.056020357 -0.011047656 0.084223509 7.735068e-39
0.05867273 -0.010827377 0.084366135 6.722351e-39
0.061111037 -0.011163715 0.083986469 6.8149096e-39
0.063628167 -0.011287631 0.084334061 6.0777061e-39
0.065992936 -0.011112668 0.084099986 5.8940337e-39
0.068734653 -0.011144338 0.083845742 5.7100026e-39
0.071238235 -0.011271117 0.083944224 5.8940337e-39
0.073709823 -0.011210972 0.083815694 5.9862293e-39
0.076453224 -0.011168395 0.08382114 6.1702619e-39
0.078879282 -0.01161378 0.083586603 6.1699031e-39
0.08108066 -0.011183601 0.083151467 6.4468473e-39
0.083613187 -0.011092365 0.083281428 7.2766066e-39
0.085629515 -0.011031747 0.082795054 6.9078241e-39
-0.021865591 -0.009788692 0.082892835 3.0388544e-39
-0.01579573 -0.0093792751 0.082746357 3.3154385e-39
-0.013826348 -0.0093142539 0.083019614 3.6838567e-39
-0.010764711 -0.0098190606 0.083352387 3.9593646e-39
-0.0089047151 -0.0088416338 0.082729198 4.0512001e-39
-0.0064115277 -0.009334187 0.083327927 4.6040123e-39
-0.0038852543 -0.0088813156 0.083904535 4.5118167e-39
-0.0014526099 -0.0087609943 0.084350109 4.8795188e-39
0.0014556423 -0.0083442777 0.083680004 5.2475811e-39
0.0037700534 -0.0080692023 0.08454138 5.8007549e-39
0.0062252386 -0.0089373682 0.083878681 5.8918701e-39
0.0086798994 -0.0090856887 0.08379925 5.6152832e-39
0.011384237 -0.0090969941 0.083341122 6.3535699e-39
0.013874203 -0.0089146476 0.083246924 6.8145481e-39
0.016394731 -0.0090181837 0.083417967 6.5386814e-39
0.018577417 -0.0090903062 0.083682269 6.2624547e-39
0.0213928 -0.0088153668 0.083423816 6.4464872e-39
0.023753069 -0.0088450257 0.08371634 6.8149096e-39
0.026433945 -0.0089410786 0.083800435 6.9074654e-39
0.028863318 -0.0088120196 0.08365348 7.5521173e-39
0.031283606 -0.008689886 0.083656333 8.1971252e-39
0.033643641 -0.0085913828 0.083684631 8.2886019e-39
0.036133602 -0.0087143248 0.083849356 7.5513956e-39
0.038572028 -0.008711271 0.083669625 7.7354268e-39
0.041700859 -0.0087485891 0.084052667 7.2758877e-39
0.043996841 -0.0085564377 0.084099695 7.460279e-39
0.046342891 -0.0088597853 0.084038995 7.5521145e-39
0.048822287 -0.0087529598 0.083798684 7.5517544e-39
0.051455159 -0.0087425513 0.083930694 7.5513942e-39
0.053870391 -0.0088670393 0.083669648 7.2755276e-39
0.056080379 -0.0088744685 0.083764568 6.998582e-39
0.05876255 -0.0086343521 0.083867893 6.6305183e-39
0.061135881 -0.008984535 0.083460934 6.5383241e-39
0.063873596 -0.0087055499 0.083511472 5.9858706e-39
0.066367157 -0.0087155933 0.083452143 5.8940351e-39
0.0684435 -0.0088852728 0.08355546 5.6178083e-39
0.071280994 -0.0093673328 0.083147123 5.7096438e-39
0.073592 -0.0088531896 0.083110966 5.6174482e-39
0.076318853 -0.0085388431 0.083106786 5.8940365e-39
0.078710444 -0.0089768432 0.08310023 5.9862307e-39
0.081126951 -0.0092916926 0.083167776 5.9862293e-39
0.083674833 -0.008564705 0.082908131 6.7234342e-39
0.085410282 -0.00980407 0.082952082 6.8156285e-39
-0.0014047474 -0.0069669485 0.082996428 4.696208e-39
0.0012231208 -0.0067510977 0.083125547 5.0635514e-39
0.0039279461 -0.0067204833 0.083406888 5.708918e-39
0.0064959228 -0.0067061037 0.084092557 5.3404984e-39
0.0096518099 -0.0063318089 0.082530797 5.6170853e-39
0.011777257 -0.0068999608 0.082761139 6.4464858e-39
0.013777331 -0.0063205529 0.082631871 7.4584797e-39
0.016614802 -0.0064247344 0.082913071 6.9993037e-39
0.018982435 -0.006156696 0.083139434 6.8152753e-39
0.021739155 -0.0070698229 0.083263636 7.3688036e-39
0.023878813 -0.0073672216 0.083228767 8.1049281e-39
0.028535601 -0.007159939 0.083035737 6.9985834e-39
0.032168746 -0.0063105319 0.082661673 7.0907776e-39
0.033818156 -0.0069232783 0.082833111 6.6298009e-39
0.036335014 -0.0069699967 0.082921639 6.8131103e-39
0.038911566 -0.0068005207 0.083236858 6.9985806e-39
0.041551244 -0.006648215 0.082851425 7.5524746e-39
0.043714512 -0.00667495 0.083140381 7.5524746e-39
0.046251465 -0.0066571683 0.083261743 7.8287014e-39
0.048927672 -0.0068542538 0.083000459 8.0127325e-39
0.051391713 -0.0065253926 0.082945302 7.2751689e-39
0.053630024 -0.0068287808 0.082916178 7.4599189e-39
0.056311589 -0.0065837875 0.082794435 6.6305183e-39
0.058731392 -0.0063175038 0.082704455 6.8149082e-39
0.061407078 -0.0066778236 0.082894042 6.6308785e-39
0.063768506 -0.0065331608 0.082744405 5.8014793e-39
0.065759659 -0.0065296367 0.082734004 5.6170881e-39
0.0680646 -0.0073568225 0.082968593 5.8018409e-39
0.071113035 -0.0071824268 0.082529396 5.6170881e-39
0.074113622 -0.0070985653 0.082849801 5.4326968e-39
0.076190248 -0.0069034416 0.083037719 5.8022024e-39
0.078582123 -0.0065299724 0.083239563 5.8943966e-39
0.080624752 -0.0070291534 0.082733393 5.9869538e-39
0.083411753 -0.0070914924 0.083096623 6.1713409e-39
0.085845768 -0.0060345307 0.082562208 7.18549e-39
0.008665517 -0.0049931109 0.082602143 5.1571889e-39
0.078959316 -0.0047686696 0.082853794 5.7125277e-39
0.081948504 -0.0026077032 0.082561195 1.2081938e-38
0.083787359 -0.0037063956 0.082640335 9.5883385e-39
0.082843661 -0.0019598007 0.082779288 1.0883395e-38
0.17865561 0.019799948 0.0830805 1.6220701e-38
0.18161216 0.019064978 0.082854152 1.6220701e-38
0.18582933 0.019910336 0.082526147 1.6220701e-38
0.17182823 0.021985233 0.083009362 1.6128861e-38
0.17308347 0.02218461 0.083207488 1.6221057e-38
0.17680748 0.021570584 0.083612263 1.6128505e-38
0.1786695 0.02126357 0.083814651 1.6128505e-38
0.18133359 0.021348882 0.083163604 1.6128505e-38
0.18389906 0.022104278 0.083111227 1.6220701e-38
0.18589208 0.021733642 0.082811311 1.6128505e-38
0.172304 0.023776174 0.083854973 1.6221057e-38
0.17397557 0.02372849 0.084377326 1.6128861e-38
0.17644162 0.023689816 0.084225118 1.6128504e-38
0.17884852 0.023875218 0.084235013 1.6128505e-38
0.18136568 0.023879522 0.0838921 1.6128505e-38
0.18334337 0.023418183 0.08408656 1.6128505e-38
0.18635206 0.023475373 0.083953418 1.6128505e-38
0.18859206 0.023855379 0.084174611 1.6312897e-38
0.1911003 0.024148514 0.083194137 1.6404373e-38
0.19270389 0.024809554 0.083168805 1.6404013e-38
0.19659716 0.024276564 0.083268464 1.6496565e-38
0.19831671 0.023803473 0.082746416 1.6496207e-38
0.16895832 0.026682951 0.084103853 1.6036308e-38
0.17124335 0.026224487 0.08459489 1.6128861e-38
0.17350119 0.025852203 0.084840298 1.6128861e-38
0.17663354 0.02688159 0.08439517 1.6221057e-38
0.17857032 0.026155915 0.084544003 1.6221057e-38
0.18085219 0.02638917 0.084884569 1.6128863e-38
0.18437678 0.026747249 0.084389985 1.6128505e-38
0.18631628 0.026020553 0.084539019 1.6128505e-38
0.18878102 0.026071111 0.084468171 1.6312536e-38
0.19168204 0.026279919 0.084275663 1.6404012e-38
0.19396962 0.026475087 0.084101036 1.6404369e-38
0.19580109 0.026339121 0.083815157 1.6496565e-38
0.1983254 0.026662387 0.08318153 1.6496565e-38
0.1242447 0.028825199 0.083193995 1.4380381e-38
0.12597378 0.029234044 0.084099412 1.5391661e-38
0.16386548 0.028986797 0.083007365 1.6128505e-38
0.16661128 0.028857835 0.083610013 1.603631e-38
0.1685749 0.028896146 0.084643587 1.5944114e-38
0.17720725 0.028005987 0.084642589 1.6221057e-38
0.17846249 0.02820535 0.084840685 1.6313253e-38
0.18419105 0.028269863 0.084596254 1.6128863e-38
0.18654956 0.027609706 0.084811449 1.6220701e-38
0.19149894 0.02875497 0.084626853 1.6404372e-38
0.19309944 0.028491089 0.084800839 1.6496206e-38
0.19610694 0.028981831 0.084257185 1.6404369e-38
0.12358204 0.03115941 0.084071837 1.40116e-38
0.12586688 0.031266157 0.084393576 1.5391661e-38
0.12801826 0.032120138 0.084810883 1.5483856e-38
0.13434862 0.032463253 0.082648754 1.5576052e-38
0.15988408 0.032487601 0.083006322 1.6128505e-38
0.16182087 0.031761914 0.083155185 1.6128505e-38
0.16367413 0.030983504 0.083488896 1.6128505e-38
0.19226603 0.030258417 0.084957659 1.6221057e-38
0.12530659 0.03297013 0.084577322 1.5483856e-38
0.13208072 0.03364642 0.082525074 1.5483856e-38
0.13378596 0.034174487 0.082833245 1.5576052e-38
0.13525926 0.033122331 0.082870543 1.5760443e-38
0.15743153 0.034993976 0.084079087 1.6128505e-38
0.15865733 0.033741429 0.083542734 1.6128505e-38
0.1616354 0.033282388 0.083361186 1.6128505e-38
0.024030432 -0.075890154 0.085117973 6.077346e-39
0.026123157 -0.076080918 0.085368872 6.1699003e-39
0.017141365 -0.072984792 0.085658014 5.9851517e-39
0.018977206 -0.073672637 0.085799098 6.3539343e-39
0.021575511 -0.073483668 0.08592017 7.7368645e-39
0.023661366 -0.073823512 0.085382327 7.7365044e-39
0.026129719 -0.073921911 0.085697472 7.9219746e-39
0.02860852 -0.073494807 0.085685655 7.2766066e-39
0.0014916062 -0.070179015 0.085011423 5.2468636e-39
0.0053783208 -0.070050694 0.085550666 5.9844287e-39
0.0086103454 -0.070566997 0.085777968 5.7089236e-39
0.011548499 -0.070971973 0.085623756 5.6163664e-39
0.013812919 -0.070942737 0.085990004 5.7085634e-39
0.016172949 -0.070980631 0.086342856 6.4457726e-39
0.018551996 -0.071291588 0.086103655 7.2758891e-39
