# .PCD v0.7 - Point Cloud Data file format
VERSION 0.7
FIELDS x y z rgb
SIZE 4 4 4 4
TYPE F F F F
COUNT 1 1 1 1
WIDTH 927
HEIGHT 1
VIEWPOINT 0 0 0 1 0 0 0
POINTS 927
DATA ascii
-0.031244308 -0.036100782 0.080648132 4.0515616e-39
-0.028605312 -0.036376469 0.080680653 3.591301e-39
-0.026090387 -0.036117129 0.080746442 3.867169e-39
-0.023677418 -0.036417503 0.080557935 3.4994655e-39
-0.021176217 -0.036091127 0.08082062 3.3154343e-39
-0.018513411 -0.036434878 0.081392847 3.2228786e-39
-0.016136684 -0.036065016 0.081808679 3.5913052e-39
-0.013712743 -0.036505662 0.082136177 3.5916625e-39
-0.010888249 -0.036084257 0.081850685 3.7753335e-39
-0.0086639142 -0.03642242 0.081857078 5.2486643e-39
-0.0061318222 -0.036104951 0.081478611 5.7085648e-39
-0.0036479272 -0.036259245 0.080758102 5.3404998e-39
-0.0015691906 -0.035708684 0.080552004 5.0639115e-39
0.0069750585 -0.036853485 0.082108974 4.3274283e-39
0.0083860187 -0.036509946 0.08121264 4.1433957e-39
-0.10077973 -0.034890842 0.08035019 5.1553911e-39
-0.098580994 -0.034138627 0.081187032 4.9717187e-39
-0.096595079 -0.03302766 0.08067587 4.6969268e-39
-0.091521673 -0.03442698 0.080225646 4.3281457e-39
-0.088969842 -0.034347881 0.080601059 4.1437531e-39
-0.086197242 -0.033875197 0.080838248 4.0515588e-39
-0.084002212 -0.03430992 0.080271676 4.6043725e-39
-0.077742279 -0.03294991 0.082041353 4.0522833e-39
-0.075913332 -0.032978494 0.081839144 3.867892e-39
-0.074006729 -0.033248596 0.082057387 3.6835008e-39
-0.071351737 -0.032856308 0.081836581 3.9590087e-39
-0.067663126 -0.032931261 0.081768394 4.1437559e-39
-0.066491082 -0.033223171 0.08184965 4.2363102e-39
-0.063953817 -0.03302348 0.082035743 4.3292261e-39
-0.060907375 -0.033449572 0.082251027 4.9738767e-39
-0.058828846 -0.033260375 0.082403764 5.7103627e-39
-0.055509206 -0.034538131 0.080078065 6.3546503e-39
-0.053701431 -0.034457576 0.080349475 6.5390402e-39
-0.050033506 -0.033557016 0.080030739 5.433773e-39
-0.049170669 -0.033825092 0.080091745 5.1571861e-39
-0.046187874 -0.034567952 0.080343872 5.1571903e-39
-0.043279354 -0.034920026 0.08067292 5.6170881e-39
-0.041185964 -0.034511477 0.080368139 5.7103627e-39
-0.038878851 -0.034514211 0.080346212 5.8947526e-39
-0.035401564 -0.033445768 0.080038249 4.6040151e-39
-0.033800937 -0.034004595 0.08013773 4.604734e-39
-0.031144693 -0.034399148 0.080421925 4.6969296e-39
-0.028707767 -0.034318566 0.080574691 4.2359515e-39
-0.026312798 -0.033990696 0.080673449 4.3281443e-39
-0.023851033 -0.033952698 0.080509938 4.1441146e-39
-0.021327434 -0.033479027 0.08096958 3.7760523e-39
-0.018798117 -0.033894945 0.081231184 3.4072698e-39
-0.016297512 -0.033586755 0.0816506 3.3147183e-39
-0.013888905 -0.033940502 0.08190918 3.4069139e-39
-0.011610039 -0.033898111 0.082238115 3.6831379e-39
-0.0090732565 -0.03425492 0.082255423 4.7887665e-39
-0.0062930332 -0.033534408 0.082030542 5.4334171e-39
-0.0036998063 -0.033829089 0.081294 5.3408599e-39
-0.0011873017 -0.033659372 0.081224464 4.696208e-39
0.0016361456 -0.033005126 0.080416232 3.9597233e-39
0.0036027692 -0.033486817 0.080325708 4.0512015e-39
0.0060593551 -0.0332807 0.080457583 4.6032949e-39
0.0090676788 -0.033683203 0.080603696 4.4192624e-39
0.011570447 -0.032785762 0.080909848 4.6036564e-39
0.013111077 -0.032619119 0.081852555 4.5118195e-39
-0.098106794 -0.03244362 0.080573618 5.0649905e-39
-0.096792251 -0.032148432 0.080672383 4.9735137e-39
-0.092750005 -0.031702481 0.080970436 4.604734e-39
-0.090997271 -0.031308893 0.081102103 4.5125384e-39
-0.088563159 -0.030669952 0.08128611 4.6040151e-39
-0.086467251 -0.030983865 0.081433967 4.5118223e-39
-0.083562717 -0.030755954 0.081145644 4.3277898e-39
-0.08098831 -0.030883925 0.081497498 3.868248e-39
-0.078752577 -0.031059513 0.080988705 3.6835008e-39
-0.076297984 -0.031433243 0.081161797 3.5913052e-39
-0.073607527 -0.031195994 0.080929711 3.7753377e-39
-0.071279556 -0.031373467 0.080690183 4.2355956e-39
-0.069054008 -0.031656738 0.081014894 4.2359543e-39
-0.065874159 -0.031786375 0.081159905 4.0522805e-39
-0.063768722 -0.031064915 0.081070468 3.7760523e-39
-0.061155323 -0.031273343 0.081006393 3.9604436e-39
-0.058841836 -0.031317707 0.080922626 4.1444761e-39
-0.056200918 -0.030724673 0.081121035 4.0522819e-39
-0.053446751 -0.030601656 0.081823207 4.1444789e-39
-0.051247951 -0.030107904 0.081988424 4.0522833e-39
-0.048752327 -0.030937731 0.082158864 4.3288702e-39
-0.046279732 -0.030980682 0.082003079 4.2366746e-39
-0.044101883 -0.031074679 0.082092702 3.9600877e-39
-0.040985499 -0.030526457 0.081723362 4.1433999e-39
-0.039223306 -0.030130746 0.081855774 4.2359515e-39
-0.029059121 -0.032334607 0.080141507 4.5125384e-39
-0.023271279 -0.031039374 0.080208153 4.0515602e-39
-0.021101713 -0.030972123 0.080527306 3.9600835e-39
-0.018577289 -0.031430725 0.081123434 3.5920212e-39
-0.016194254 -0.031059878 0.081540383 3.3150756e-39
-0.013772199 -0.031528763 0.082076751 3.3147183e-39
-0.01137608 -0.030472547 0.082002327 3.7749761e-39
-0.0088042924 -0.031086244 0.08222568 4.419984e-39
-0.0067748986 -0.031716753 0.082369268 4.696931e-39
-0.0037516851 -0.031398937 0.081829876 4.6965709e-39
-0.0012977629 -0.031262353 0.081974559 5.1571861e-39
0.001407593 -0.031322099 0.080889642 4.6954905e-39
0.003788244 -0.031214068 0.080859676 4.4192638e-39
0.0062623671 -0.031237029 0.081201375 4.8795216e-39
0.0088300537 -0.031310055 0.081256576 5.4326954e-39
0.011230073 -0.031255186 0.081663877 5.524891e-39
0.013876673 -0.031540293 0.081813157 5.1561099e-39
0.017006028 -0.030155286 0.080880821 5.708562e-39
0.017808788 -0.030030362 0.081021249 5.708562e-39
-0.085894875 -0.029649802 0.08082328 4.6958549e-39
-0.083517231 -0.029398495 0.080664217 4.695852e-39
-0.082313724 -0.029282434 0.08075276 4.604734e-39
-0.078139186 -0.029658724 0.080047607 3.5913052e-39
-0.076819904 -0.029362474 0.08014673 3.4991095e-39
-0.063690163 -0.029357649 0.080094397 3.7760523e-39
-0.062098682 -0.029232398 0.080211133 3.7760523e-39
-0.058717497 -0.029865859 0.080448061 3.6834994e-39
-0.056514755 -0.029371222 0.080613576 3.7760523e-39
-0.053772349 -0.029219642 0.080813915 3.775695e-39
-0.051129058 -0.028626077 0.081012495 3.7756964e-39
-0.04880188 -0.02868359 0.08118023 3.867892e-39
-0.046178829 -0.028888894 0.081081092 3.7756964e-39
-0.043689519 -0.028781042 0.081047721 3.5913052e-39
-0.041078649 -0.028550947 0.081364833 3.7753363e-39
-0.038721465 -0.028894885 0.081238784 3.5913052e-39
-0.036664438 -0.028472913 0.082061283 3.4072768e-39
-0.033694413 -0.027960727 0.082282521 3.3154413e-39
-0.031932224 -0.027565017 0.082414925 3.407637e-39
-0.021440759 -0.027852941 0.080142722 3.7753335e-39
-0.018852349 -0.028828889 0.080597721 3.5920212e-39
-0.016327679 -0.028611775 0.081034623 3.6838567e-39
-0.013688272 -0.028969105 0.081703976 3.9597233e-39
-0.011523464 -0.028919583 0.082156397 3.9593646e-39
-0.0095012039 -0.029572435 0.082466334 4.143037e-39
-0.0038532012 -0.029139061 0.082320735 4.3270723e-39
-0.0024588555 -0.029572263 0.082419395 4.6036592e-39
0.0016025491 -0.028802235 0.081978805 5.0639143e-39
0.0035135164 -0.029312706 0.082073495 4.9717187e-39
0.00634355 -0.028776513 0.081762694 4.7869701e-39
0.0085974783 -0.02944571 0.081929088 5.063557e-39
0.010726414 -0.029634133 0.082298197 5.6174468e-39
0.012900375 -0.027547665 0.081649244 5.4326968e-39
0.019310478 -0.029909566 0.082292974 5.6163664e-39
0.020111654 -0.029784888 0.082433164 5.708562e-39
-0.050928742 -0.026810935 0.080046572 3.6835008e-39
-0.049019232 -0.026506165 0.080188513 3.5913052e-39
-0.045956373 -0.026934555 0.080404937 3.5913052e-39
-0.038326852 -0.026833039 0.080707699 3.5916667e-39
-0.036062248 -0.026241103 0.080795296 3.3154413e-39
-0.034029752 -0.026399294 0.081561185 3.0388544e-39
-0.031456713 -0.026189059 0.081964873 3.0388544e-39
-0.029671092 -0.025137898 0.081605673 3.3154385e-39
-0.023022089 -0.027083099 0.080093145 4.418905e-39
-0.020794345 -0.026939604 0.080437481 3.4994655e-39
-0.018515863 -0.02644998 0.080607757 3.4998242e-39
-0.016136037 -0.026147282 0.081060745 3.867169e-39
-0.013712893 -0.026447155 0.081540242 3.9593646e-39
-0.011480193 -0.025867492 0.081982784 4.4196225e-39
-0.0088741882 -0.026019257 0.082314178 4.8802405e-39
-0.0068257651 -0.026729956 0.082442485 5.5248896e-39
0.014277976 -0.02721791 0.081251621 5.7092837e-39
0.027529288 -0.025119487 0.080732405 6.6297981e-39
0.034706555 -0.025941353 0.082235485 6.8131103e-39
0.036336873 -0.025631841 0.081292138 7.0896944e-39
0.040046807 -0.025178008 0.080052078 7.3662841e-39
-0.036244404 -0.024687951 0.080132663 3.407637e-39
-0.03326375 -0.024173932 0.080354691 3.1310487e-39
-0.031196985 -0.023582462 0.080941275 3.0388516e-39
-0.028734816 -0.023997512 0.081687391 3.5916639e-39
-0.026424503 -0.023594987 0.081859529 4.4199812e-39
-0.023583084 -0.023284378 0.081734754 4.5125384e-39
-0.021285705 -0.02325492 0.082235634 4.5125384e-39
-0.019961696 -0.022957608 0.082335114 4.3277912e-39
-0.015555098 -0.023617273 0.080880225 3.9590031e-39
-0.01385384 -0.023879668 0.080945164 4.1430342e-39
-0.011336406 -0.02351689 0.081597477 4.6954877e-39
-0.0085386485 -0.023068281 0.081986509 4.787326e-39
-0.0065435823 -0.022757813 0.082335562 4.7869645e-39
-0.0042478554 -0.024029255 0.082373202 7.0914965e-39
0.024657268 -0.024825968 0.08052814 6.8141893e-39
0.026438374 -0.024426011 0.080661982 6.9982205e-39
0.028894018 -0.024290111 0.081844047 7.0907762e-39
0.031067565 -0.023989391 0.082005046 7.7350652e-39
0.033612553 -0.023488417 0.081565045 8.011292e-39
0.036861721 -0.024490619 0.08148291 7.1818929e-39
0.038692988 -0.023617243 0.081590079 7.550674e-39
0.041158695 -0.022862405 0.081406958 7.9194579e-39
0.04340696 -0.022706261 0.080984682 8.1038491e-39
-0.033105299 -0.022119448 0.080391347 3.4076342e-39
-0.031066006 -0.021894462 0.0805417 3.3154385e-39
-0.028584586 -0.021570196 0.08072526 3.9600863e-39
-0.026049642 -0.021167219 0.081080802 4.5125384e-39
-0.024006907 -0.021273911 0.081060231 3.9600835e-39
-0.021225663 -0.021344265 0.081706315 3.7753363e-39
-0.019076984 -0.021071203 0.082221709 4.1437573e-39
-0.015587337 -0.022397842 0.080114037 4.4199812e-39
-0.013588327 -0.02208676 0.080463804 4.8798804e-39
-0.011268196 -0.021111337 0.080489941 5.0639115e-39
-0.0087909056 -0.021339118 0.081303418 5.4319737e-39
-0.0066747949 -0.020850979 0.081536792 5.3397767e-39
-0.0039930888 -0.020593559 0.082142629 5.6163664e-39
-0.0016599763 -0.02131843 0.082307667 6.6301526e-39
0.035659134 -0.022396257 0.0823569 8.2882404e-39
0.041108366 -0.021907063 0.081679568 8.1953245e-39
0.043680072 -0.021781562 0.08160425 8.0112948e-39
0.046250585 -0.021109056 0.081546351 8.1956832e-39
0.048767719 -0.020626385 0.08090435 8.47191e-39
0.051093575 -0.020716464 0.081154943 7.735068e-39
0.053431824 -0.020166405 0.080662459 7.6432339e-39
-0.02350254 -0.019193944 0.080119535 3.5916625e-39
-0.021238156 -0.018918831 0.080286801 3.7753363e-39
-0.018680716 -0.018830532 0.080759473 4.0515602e-39
-0.016566174 -0.018560803 0.081632018 4.6954891e-39
-0.013651836 -0.017751073 0.081852876 4.4192624e-39
-0.011046901 -0.019917488 0.080270708 5.4326926e-39
-0.0084770015 -0.018763976 0.08037167 5.7085578e-39
-0.0061889444 -0.019003706 0.080860443 5.8003905e-39
-0.0037608165 -0.01919242 0.081454135 5.8922288e-39
-0.001174816 -0.018848389 0.081893541 6.7216308e-39
0.0015155151 -0.018230261 0.081374623 6.2610127e-39
0.0031210296 -0.017980415 0.081655532 6.722714e-39
0.046913799 -0.019331837 0.081972934 8.564107e-39
0.048864104 -0.018851399 0.081941538 9.1172794e-39
0.051103577 -0.018860044 0.08126238 8.8414072e-39
0.053375382 -0.018816931 0.080426931 8.3811521e-39
0.055788644 -0.018351011 0.081657432 7.6443129e-39
0.059009589 -0.018333834 0.08068756 6.7227168e-39
0.06110863 -0.018178977 0.08049044 6.722714e-39
-0.020308016 -0.016843036 0.080379575 3.9590087e-39
-0.018536367 -0.016445203 0.080512673 3.7749761e-39
-0.016071821 -0.016245361 0.080979966 4.2352312e-39
-0.013975102 -0.016195033 0.081418835 4.3270681e-39
-0.011396979 -0.015381128 0.082045116 4.603655e-39
-0.0064887367 -0.017427925 0.080431879 5.9837e-39
-0.0028162859 -0.016711332 0.080072641 5.6167195e-39
-0.0011318568 -0.016859598 0.080275625 5.2472196e-39
0.0013734672 -0.016272884 0.080610208 5.9844287e-39
0.0036941487 -0.01610858 0.081119984 6.1695402e-39
0.0059311343 -0.015678383 0.081529714 6.2617358e-39
0.048961055 -0.016564695 0.082253419 8.7484969e-39
0.051190764 -0.016621305 0.081587963 8.7495745e-39
0.053634606 -0.01584585 0.080526277 7.9205341e-39
0.056548309 -0.015550707 0.080884375 7.2758877e-39
0.058668252 -0.016309917 0.081715412 6.6305211e-39
0.061387599 -0.016245484 0.081716061 6.4457683e-39
0.063642658 -0.016277241 0.080780715 7.182969e-39
0.066271968 -0.015830448 0.080642261 6.9985806e-39
0.06905853 -0.015676428 0.080845855 6.9985806e-39
-0.015292015 -0.014316473 0.080773592 4.5118195e-39
-0.013481379 -0.014161762 0.081157178 4.5118195e-39
-0.011550267 -0.013811526 0.081384815 4.6958506e-39
-0.0089262184 -0.01386927 0.081908256 4.6965695e-39
-0.0067703873 -0.013581621 0.082201503 5.1564673e-39
0.0035392207 -0.014754812 0.080366649 5.9855077e-39
0.006120408 -0.014147134 0.080864295 5.8936736e-39
0.0086700143 -0.01430882 0.081185572 5.9855119e-39
0.011271288 -0.013962758 0.08162757 5.8021982e-39
0.013872564 -0.013616691 0.082069568 6.5383255e-39
0.015997743 -0.013364297 0.082423888 7.2755304e-39
0.049732957 -0.012645856 0.082142472 7.5517544e-39
0.051325276 -0.013730807 0.08199393 7.2755262e-39
0.053684045 -0.013943056 0.081113636 7.460279e-39
0.056005176 -0.013761942 0.080556072 6.5386842e-39
0.058987644 -0.013416569 0.080422752 6.4461285e-39
0.061386775 -0.013876039 0.081185386 6.3539314e-39
0.063682482 -0.013841166 0.081327505 6.6301596e-39
0.066470176 -0.013609217 0.080868654 6.9063878e-39
0.068579838 -0.013822222 0.080839559 7.1829719e-39
0.071221069 -0.013439314 0.080784321 7.4599189e-39
0.073779657 -0.013800063 0.080378018 7.5517544e-39
0.076312579 -0.013716275 0.080428794 7.6435899e-39
0.079776451 -0.01303868 0.080060959 7.64395e-39
-0.010957135 -0.011771158 0.08011584 4.6965709e-39
-0.0086498912 -0.011253055 0.08028917 4.5125384e-39
-0.0064823106 -0.012001271 0.081105351 4.604734e-39
-0.0037355486 -0.011670947 0.08097396 4.9735165e-39
-0.0010038465 -0.011266081 0.08084242 4.9735165e-39
0.001264569 -0.010990478 0.081009984 5.2497419e-39
0.0036322922 -0.010877002 0.080514289 5.433773e-39
0.0064091058 -0.011613316 0.081847951 5.3415788e-39
0.0095506553 -0.010532482 0.081615329 4.9727977e-39
0.011325456 -0.010133943 0.081748664 4.6969338e-39
0.0168049 -0.011158621 0.080961615 5.8018395e-39
0.018660272 -0.010982111 0.081467986 5.8018381e-39
0.048908807 -0.010752989 0.082243159 6.6301568e-39
0.051442761 -0.011312551 0.081793681 6.2620974e-39
0.053909518 -0.011199553 0.081212588 6.2624575e-39
0.056269508 -0.011289878 0.080776289 5.9858706e-39
0.058763724 -0.011100535 0.080913082 6.2620974e-39
0.061180811 -0.011186761 0.081200115 6.3542902e-39
0.063541174 -0.011382043 0.080979839 6.4461285e-39
0.066359058 -0.011321379 0.080756404 6.907108e-39
0.068899639 -0.011361939 0.081255183 7.3677246e-39
0.071373641 -0.011260984 0.08153902 7.5521145e-39
0.073838882 -0.011322832 0.081169456 7.64395e-39
0.076095752 -0.011297966 0.081010908 7.8279825e-39
0.078597777 -0.011209837 0.080411047 7.8279825e-39
0.080444634 -0.012094595 0.080365598 7.7361456e-39
0.0039006826 -0.0098552704 0.080212027 4.6047382e-39
0.012656558 -0.0098350383 0.081848681 4.6054571e-39
0.016397607 -0.0088502225 0.080126137 4.5132615e-39
0.019069267 -0.0082502887 0.080326878 4.7898469e-39
0.020643163 -0.0080416054 0.082448721 4.882044e-39
0.036976662 -0.0081357062 0.082396507 6.353214e-39
0.038602963 -0.0076784394 0.081757285 6.9989449e-39
0.041757062 -0.0081173182 0.081984423 7.6439486e-39
0.043914549 -0.0081805205 0.081544407 7.8283413e-39
0.046413079 -0.0084881745 0.082006797 7.4595573e-39
0.048874676 -0.0085690403 0.081839167 7.0907734e-39
0.051036645 -0.0085513145 0.080760628 6.4457683e-39
0.053861629 -0.0085110012 0.08076711 6.1702619e-39
0.056289963 -0.0085899672 0.081064172 6.1702619e-39
0.058919501 -0.0087367715 0.081365786 6.0777061e-39
0.061443407 -0.008832179 0.081671484 6.0780648e-39
0.063523941 -0.0092806071 0.080826692 6.3546503e-39
0.066246115 -0.0082460335 0.080269627 5.9862307e-39
0.068872981 -0.0087688677 0.081177451 6.4464886e-39
0.071089625 -0.0087317703 0.081607014 6.999661e-39
0.073723711 -0.0087416684 0.081354171 6.9993009e-39
0.076241963 -0.0087261116 0.081044927 7.0907776e-39
0.078671604 -0.0088204211 0.08066491 7.4592e-39
0.08004126 -0.008664757 0.080041468 7.0907762e-39
0.08389923 -0.0084785596 0.080002844 7.8283441e-39
0.032551665 -0.005150374 0.080337942 3.86719e-39
0.036536891 -0.0059787598 0.081381157 6.1702675e-39
0.038848974 -0.0065131481 0.081779972 6.6305239e-39
0.041178714 -0.0064570792 0.081004076 7.4599203e-39
0.04372346 -0.0063377023 0.080670573 7.5521145e-39
0.045962408 -0.0067015211 0.081091613 7.64395e-39
0.048614319 -0.0067314263 0.080807559 7.6439472e-39
0.051468611 -0.0063650836 0.081357993 6.9067437e-39
0.053681664 -0.0066102385 0.081849381 6.1702605e-39
0.056470696 -0.0061962949 0.081304297 5.9858706e-39
0.058674704 -0.0065100845 0.080928519 5.7092823e-39
0.061140813 -0.0062877806 0.081651174 5.7092823e-39
0.064012654 -0.0064919232 0.080936074 5.9858734e-39
0.066205904 -0.0063983048 0.081220053 5.8936778e-39
0.068810232 -0.0064246696 0.081491932 5.9855133e-39
0.071405701 -0.0060742521 0.081552096 6.2620988e-39
0.073693492 -0.0063726646 0.081202663 6.8152697e-39
0.076019637 -0.0061907088 0.080597624 6.4457669e-39
0.078415543 -0.0068134647 0.080227345 6.9067493e-39
0.058890019 -0.0043112878 0.080750495 6.0780634e-39
0.061573893 -0.0037086096 0.080952138 6.4461285e-39
0.063709594 -0.0038481818 0.081319869 6.0777103e-39
0.066480935 -0.0040470245 0.08138936 5.7089278e-39
0.068668529 -0.0040820492 0.080999479 5.7089278e-39
0.071170792 -0.0038150623 0.080705486 5.8014821e-39
0.07380306 -0.0037891807 0.080757536 6.2624575e-39
0.075826563 -0.0040204194 0.08051616 6.8149082e-39
0.06558948 -0.0023039728 0.080758661 6.4464928e-39
0.068917356 -0.0019963663 0.080501974 6.0777131e-39
0.07098417 -0.0021089446 0.080156267 6.1702661e-39
0.073873773 -0.0015907958 0.080499381 6.2635435e-39
0.075326458 -0.00088194263 0.080430508 6.355379e-39
-0.085053787 -0.077516392 0.082971334 5.6156433e-39
-0.080003291 -0.077674054 0.082516491 3.406188e-39
-0.088262826 -0.07547646 0.082764089 6.721265e-39
-0.086136341 -0.076218262 0.084245823 5.892226e-39
-0.083327226 -0.075313911 0.083353758 4.0497596e-39
-0.080990605 -0.076257706 0.083027966 3.4973061e-39
-0.078764223 -0.075923353 0.083081514 3.4054692e-39
-0.075415798 -0.075347304 0.082645446 3.405472e-39
-0.074889258 -0.07604593 0.082563102 3.4976676e-39
-0.012020096 -0.075088598 0.083273649 5.8922302e-39
-0.0082449038 -0.075204924 0.082542777 6.5379556e-39
-0.0016690195 -0.075588569 0.083014011 6.9978547e-39
-0.088428527 -0.073450677 0.083451569 6.9056549e-39
-0.086243831 -0.073255591 0.083663508 6.2606512e-39
-0.083986081 -0.073961422 0.084166951 5.3397767e-39
-0.081127681 -0.074236192 0.084161527 4.5100175e-39
-0.078531317 -0.073737189 0.084301472 3.5895017e-39
-0.075980857 -0.073842339 0.083597511 3.405472e-39
-0.074115835 -0.073301598 0.083068065 3.405472e-39
-0.072341949 -0.073249668 0.082510948 3.4061908e-39
-0.016428687 -0.073046535 0.083480924 5.8000346e-39
-0.013858572 -0.073165759 0.083665475 5.9844259e-39
-0.011081723 -0.074320786 0.083350956 6.1684584e-39
-0.0095263906 -0.074031278 0.084469765 6.6290722e-39
-0.0069758352 -0.074884363 0.083641231 6.6290722e-39
-0.0038919996 -0.074191868 0.083872914 6.720549e-39
-0.00080816448 -0.073499382 0.084104598 7.5506684e-39
0.0013673902 -0.073418498 0.08326038 8.2882334e-39
0.0033787759 -0.073292382 0.083407491 8.8399694e-39
0.006154588 -0.072938837 0.082609989 8.2882348e-39
-0.091095291 -0.070312493 0.082606971 7.3644736e-39
-0.088893138 -0.071309142 0.08374314 7.0889657e-39
-0.086446345 -0.072013624 0.084257424 6.3524867e-39
-0.075618625 -0.071798749 0.084444322 3.4973089e-39
-0.073693275 -0.071270347 0.084174216 3.2210779e-39
-0.071549945 -0.071007378 0.083640262 3.2214366e-39
-0.068750665 -0.070508756 0.083109885 3.3132735e-39
-0.067407317 -0.070464149 0.08279109 3.312919e-39
-0.056063656 -0.070101038 0.083155036 4.3267066e-39
-0.051922832 -0.070094697 0.083454847 5.0631898e-39
-0.045846753 -0.070589617 0.082885832 4.970997e-39
-0.043578386 -0.070380405 0.083721064 5.1553883e-39
-0.04125309 -0.070469245 0.084222466 5.1553883e-39
-0.039938543 -0.070174061 0.08432126 4.9709942e-39
-0.036037277 -0.071156554 0.083923101 5.5241708e-39
-0.033847809 -0.070653349 0.084756196 5.3397795e-39
-0.032030899 -0.071195267 0.083544172 5.339418e-39
-0.027820311 -0.070724711 0.083186239 5.0631926e-39
-0.026237326 -0.070595786 0.083553031 5.247944e-39
-0.023788478 -0.070262119 0.084486395 5.3405012e-39
-0.021337608 -0.07068152 0.082653262 5.3401397e-39
-0.018762438 -0.071021937 0.083265193 6.2610127e-39
-0.016235622 -0.071174808 0.083375767 6.2610099e-39
-0.014105067 -0.071145087 0.083161823 6.1688143e-39
-0.011606128 -0.07073842 0.082967818 6.4457599e-39
-0.0092111658 -0.070469901 0.082674086 6.8134635e-39
-0.0026361663 -0.071309298 0.083760321 7.4584769e-39
-8.122623e-05 -0.070550703 0.084193349 7.8272595e-39
0.0011850586 -0.071335718 0.08352337 8.0112906e-39
0.0038571756 -0.071291454 0.083466642 8.3804304e-39
0.0060377638 -0.071234591 0.082622424 7.8279769e-39
-0.093228489 -0.068047971 0.082814068 7.3651925e-39
-0.091099471 -0.068655603 0.08341217 7.3648352e-39
-0.070653856 -0.069500349 0.08410269 3.5894975e-39
-0.068775192 -0.069175288 0.083921604 3.5891416e-39
-0.066444397 -0.068041354 0.083467565 3.5898618e-39
-0.064001821 -0.068454184 0.083028205 3.4973061e-39
-0.056260828 -0.06922181 0.083151549 4.6032935e-39
-0.053942036 -0.069156341 0.084322922 5.2483028e-39
-0.051146127 -0.06887871 0.084027328 5.3397767e-39
-0.048686866 -0.068555795 0.084334612 5.2475839e-39
-0.046221092 -0.068812437 0.084217481 5.1553883e-39
-0.043835752 -0.069200397 0.084251657 5.1553883e-39
-0.03078052 -0.06996458 0.084986627 5.4319752e-39
-0.025731564 -0.069782779 0.083850294 5.3401397e-39
-0.023547033 -0.06928274 0.084515847 5.3405012e-39
-0.020971075 -0.068869278 0.084007695 5.893312e-39
-0.018661069 -0.068812437 0.083436728 6.6297953e-39
-0.016225792 -0.068959601 0.083261549 6.6301526e-39
-0.01354509 -0.068693705 0.08349777 6.5383157e-39
-0.011060979 -0.06866657 0.08281783 6.5379556e-39
-0.009578824 -0.068535499 0.083054878 6.5368766e-39
-0.005830992 -0.068171442 0.082627438 6.1684584e-39
-0.0039125429 -0.068848543 0.082745023 6.9060234e-39
0.0011209563 -0.068352297 0.083566904 6.8138278e-39
0.003544024 -0.068739839 0.083232291 6.9067409e-39
0.0061435881 -0.068748206 0.082660563 6.7227112e-39
0.0080115572 -0.068794638 0.082795203 6.5383213e-39
-0.098837212 -0.065415546 0.08261618 7.3644708e-39
-0.096061543 -0.065374777 0.083576322 7.2729969e-39
-0.093840428 -0.066141136 0.083812639 7.3651925e-39
-0.091703527 -0.066238061 0.084531926 7.365554e-39
-0.067509592 -0.065458193 0.084929824 4.4185393e-39
-0.066193327 -0.066374123 0.08413396 4.2348669e-39
-0.063727066 -0.066423222 0.084022105 4.0497582e-39
-0.061328199 -0.065902315 0.083333127 4.1419538e-39
-0.058952421 -0.066044673 0.082895637 4.2348697e-39
-0.047916908 -0.06734246 0.084781229 5.4319752e-39
-0.046604723 -0.067047797 0.084879816 5.3397795e-39
-0.038592268 -0.065725543 0.082718454 5.8922302e-39
-0.036358438 -0.066429898 0.082874171 5.6163636e-39
-0.034081202 -0.066041581 0.083280198 5.708562e-39
-0.030848477 -0.065909214 0.082728706 5.9851489e-39
-0.028268004 -0.065586984 0.083162457 6.2610127e-39
-0.025457297 -0.06548813 0.082544386 5.9844259e-39
-0.023673285 -0.06590616 0.08270102 5.708918e-39
-0.021375522 -0.066283993 0.082938679 6.261733e-39
-0.018705137 -0.066099726 0.083354205 7.0907748e-39
-0.016305745 -0.066369586 0.083630234 6.9992981e-39
-0.013703687 -0.066022336 0.083658919 7.0914909e-39
-0.011315922 -0.066409953 0.083171539 6.6297925e-39
-0.0084503097 -0.065690123 0.08281485 5.6145615e-39
-0.0065801353 -0.066525206 0.082890369 5.4305318e-39
-0.0042804801 -0.066316396 0.082914673 5.9844259e-39
-0.00079087541 -0.065804027 0.083676375 6.5376024e-39
0.0011839779 -0.066409901 0.083834343 6.4457669e-39
0.003538412 -0.066170402 0.083255656 6.261733e-39
0.0063950759 -0.066245742 0.082709432 6.3539314e-39
0.0076136701 -0.067020386 0.08278811 6.261733e-39
-0.10056849 -0.063542873 0.082792044 7.4566665e-39
-0.098629564 -0.063645393 0.083213307 7.3644708e-39
-0.095990211 -0.063875414 0.084187962 7.3648324e-39
-0.094013095 -0.063970685 0.084188454 7.3655526e-39
-0.063643672 -0.064470418 0.084658302 4.4181778e-39
-0.061003912 -0.06396433 0.084107235 4.3263451e-39
-0.058605082 -0.063933209 0.083416238 4.5107377e-39
-0.056169063 -0.063560471 0.082806841 4.7873246e-39
-0.054193407 -0.063489608 0.083099619 5.1561071e-39
-0.051138297 -0.062942319 0.082616031 5.8014737e-39
-0.049903806 -0.063145317 0.082743704 5.7092781e-39
-0.043369945 -0.063166022 0.082620777 5.8925904e-39
-0.041036509 -0.063673891 0.082834378 6.3532084e-39
-0.038635589 -0.063696168 0.083165959 6.3532084e-39
-0.036285277 -0.063834317 0.08346457 5.8007563e-39
-0.033833742 -0.06374073 0.083829135 5.5241708e-39
-0.031479452 -0.063814655 0.083108403 5.5241708e-39
-0.0288809 -0.06361299 0.083414324 6.1691801e-39
-0.0263549 -0.063719727 0.082813777 6.5383227e-39
-0.023803074 -0.063640624 0.083189175 5.9855091e-39
-0.021168623 -0.063881136 0.083504722 6.078062e-39
-0.018592156 -0.063624747 0.083923198 6.8149096e-39
-0.016191104 -0.063845597 0.08348646 6.9071052e-39
-0.013713215 -0.063575953 0.083124168 6.9989379e-39
-0.011304751 -0.063807979 0.082835369 6.9989351e-39
-0.009094093 -0.063604221 0.082846083 6.3532042e-39
-0.0069403364 -0.063516282 0.082822941 5.7071201e-39
-0.0045862496 -0.064465284 0.082596123 6.3521294e-39
-0.00068689138 -0.063723095 0.084233195 6.7230741e-39
0.0012212893 -0.063771501 0.083702266 6.5383227e-39
0.0039271731 -0.063803785 0.082894988 6.3542888e-39
0.0060690413 -0.063756496 0.082716346 6.5390416e-39
-0.10104136 -0.061571725 0.083166316 7.4570266e-39
-0.098697536 -0.061085403 0.084159262 7.3644708e-39
-0.096463487 -0.061610177 0.08461079 7.0886056e-39
-0.060388397 -0.061848529 0.084666431 4.4185421e-39
-0.058700401 -0.061551232 0.084509827 4.695129e-39
-0.056224562 -0.06108417 0.083869629 5.2483028e-39
-0.053687736 -0.061469711 0.083057851 5.4326926e-39
-0.050992358 -0.061231434 0.083018869 5.6170825e-39
-0.048824504 -0.06113353 0.083344646 5.7085592e-39
-0.046161287 -0.060996193 0.082714453 5.7089194e-39
-0.043875951 -0.061344393 0.082956992 5.8929519e-39
-0.04144128 -0.06112387 0.083347574 6.8141865e-39
-0.038805231 -0.061275128 0.083683297 6.6305155e-39
-0.036071535 -0.061137643 0.084097244 6.0773432e-39
-0.033636995 -0.06135134 0.083459944 5.247944e-39
-0.031090628 -0.061265666 0.08373262 4.8788014e-39
-0.028677221 -0.061233692 0.083273701 5.5241722e-39
-0.026264507 -0.061241031 0.083380461 6.0773474e-39
-0.023851523 -0.061255507 0.083600558 5.6170881e-39
-0.021431295 -0.061250497 0.083538756 5.7092837e-39
-0.018858669 -0.061130203 0.083305731 6.1699003e-39
-0.016331762 -0.061288159 0.083521232 6.6305183e-39
-0.013742131 -0.0611539 0.083086893 6.53868e-39
-0.01120008 -0.061298352 0.083100706 7.3677176e-39
-0.0083122104 -0.061845645 0.082659304 6.5383171e-39
-0.00074193132 -0.061414257 0.084257513 6.907464e-39
0.001089504 -0.061016992 0.083392262 6.8149096e-39
0.0038493755 -0.061476167 0.082583643 6.4461257e-39
-0.10263595 -0.058508314 0.082593322 7.5495838e-39
-0.10096383 -0.058833532 0.083050482 7.4566679e-39
-0.098949715 -0.05898913 0.083934255 7.457028e-39
-0.097323507 -0.059136748 0.08331126 7.2737199e-39
-0.058276821 -0.058856614 0.084596917 4.9717159e-39
-0.056282774 -0.058716282 0.084218331 5.1561071e-39
-0.0539658 -0.058910735 0.083534405 5.1561071e-39
-0.051291261 -0.0585333 0.083391957 5.2486615e-39
-0.048712336 -0.058968805 0.083327092 5.6170825e-39
-0.046153106 -0.058610659 0.083248787 5.6174454e-39
-0.043679096 -0.059017479 0.083504662 5.9858678e-39
-0.041103859 -0.058695905 0.083937541 6.3542888e-39
-0.038843505 -0.058819246 0.084226839 5.8936722e-39
-0.036274023 -0.058422524 0.083641462 5.6170853e-39
-0.033794977 -0.058830172 0.083897874 5.1561071e-39
-0.031246603 -0.058728527 0.083967559 5.4319752e-39
-0.028725937 -0.058841448 0.083571725 5.6163678e-39
-0.026100717 -0.058649734 0.083982587 5.5248924e-39
-0.023643641 -0.058882453 0.083654471 5.4326968e-39
-0.021076735 -0.058766294 0.083523139 5.6170881e-39
-0.018633973 -0.058722131 0.082944654 6.0773474e-39
-0.016213529 -0.058744602 0.083278939 6.5386814e-39
-0.013770595 -0.0587257 0.083051078 6.4464858e-39
-0.011540222 -0.059015203 0.082839407 7.2755234e-39
-0.0028565153 -0.058175169 0.084144175 6.5390444e-39
-0.001315079 -0.058759961 0.083914332 6.6312372e-39
0.00059302989 -0.058803126 0.083383456 6.4464858e-39
-0.10051688 -0.056062121 0.083092369 7.4570294e-39
-0.098901808 -0.056526795 0.084206007 7.3651925e-39
-0.097365648 -0.056618154 0.084788769 7.3651925e-39
-0.058085185 -0.057477668 0.08493197 4.8795202e-39
-0.055962794 -0.056273248 0.084464483 4.8795202e-39
-0.053663231 -0.056331109 0.083739705 5.0639115e-39
-0.051252894 -0.056157827 0.08308211 5.0646318e-39
-0.048902582 -0.056295957 0.083380707 4.8806006e-39
-0.046310477 -0.05610133 0.083787575 4.6965695e-39
-0.043875817 -0.056377504 0.084067143 5.2490244e-39
-0.041262612 -0.056178391 0.084374554 5.4326968e-39
-0.038760845 -0.056294441 0.084078774 5.4326954e-39
-0.036218405 -0.05617597 0.083944537 5.3404998e-39
-0.033597793 -0.056462843 0.083994977 4.879523e-39
-0.031153804 -0.056205869 0.083923876 5.708562e-39
-0.028883949 -0.056321908 0.084112711 5.4323367e-39
-0.026296545 -0.055990856 0.084445991 5.2483056e-39
-0.023929209 -0.05640373 0.08341001 5.4326968e-39
-0.021330042 -0.056093801 0.083154164 5.6170881e-39
-0.018808415 -0.056337647 0.083223335 5.7085648e-39
-0.016376086 -0.056273382 0.083004124 5.8929533e-39
-0.013909227 -0.056660511 0.083033606 6.2617344e-39
-0.011815577 -0.055942912 0.082797982 6.4461243e-39
-0.0053704418 -0.05548846 0.084997803 5.893675e-39
-0.0030665649 -0.056133851 0.083903313 5.9862307e-39
-0.0017393939 -0.056257416 0.083245851 5.9865895e-39
-0.10068738 -0.054103293 0.083437324 7.3651925e-39
-0.099130556 -0.053747822 0.08414869 7.3651925e-39
-0.056286823 -0.05382318 0.08434613 4.9717159e-39
-0.053794079 -0.053660013 0.083697841 5.0639115e-39
-0.051303446 -0.053790234 0.083604194 4.9717159e-39
-0.04864898 -0.05380905 0.083972096 4.9717187e-39
-0.046130899 -0.053717401 0.08365608 4.8802419e-39
-0.043725342 -0.053745251 0.08405602 4.7884064e-39
-0.041325748 -0.053743154 0.084094085 5.2483042e-39
-0.038929678 -0.053697009 0.08360143 5.6170881e-39
-0.036381278 -0.05359295 0.083671659 5.8014793e-39
-0.033936728 -0.053870238 0.083952367 5.5252512e-39
-0.031311505 -0.053678535 0.084363215 5.2483056e-39
-0.028676016 -0.053911265 0.084586635 5.6174482e-39
-0.02608395 -0.053568427 0.083971478 5.3412215e-39
-0.023582868 -0.053931378 0.083666414 5.0639143e-39
-0.021109562 -0.053638726 0.083216704 5.6170867e-39
-0.018780092 -0.054115839 0.083067261 5.6170881e-39
-0.016169295 -0.053209849 0.082712337 6.0773446e-39
-0.013746276 -0.053586263 0.082709305 6.4461243e-39
-0.0063049034 -0.053381249 0.08495602 6.0780662e-39
-0.0033760872 -0.053648964 0.083660692 5.894754e-39
-0.0019225162 -0.053787149 0.083262891 5.894754e-39
-0.10073566 -0.050439298 0.082594715 7.2729983e-39
-0.098990105 -0.051408529 0.084100239 7.2729983e-39
-0.096904531 -0.051371969 0.084991753 7.3651925e-39
-0.058552388 -0.051106017 0.084739268 5.0639129e-39
-0.05622964 -0.051299274 0.084194303 4.9717159e-39
-0.053721167 -0.051157556 0.083853692 5.155747e-39
-0.051460814 -0.051280893 0.08414299 5.1557484e-39
-0.048810448 -0.051101409 0.083802454 5.2483056e-39
-0.046190031 -0.051317267 0.083839491 5.1564701e-39
-0.043651197 -0.051202111 0.083807431 5.0649933e-39
-0.04114265 -0.051330835 0.083716623 5.3408585e-39
-0.038594306 -0.051234204 0.08388862 5.3405012e-39
-0.036183618 -0.051256575 0.084221564 5.3412201e-39
-0.033773318 -0.051260613 0.084351689 4.8809622e-39
-0.031359553 -0.051241193 0.084211744 4.880602e-39
-0.028942397 -0.051233988 0.08420746 5.3412243e-39
-0.026373949 -0.051083077 0.083773874 5.4337772e-39
-0.023871057 -0.051448584 0.083525941 5.7092837e-39
-0.021622445 -0.05129553 0.083358265 5.8936736e-39
-0.018519865 -0.051098775 0.08276847 5.8018409e-39
-0.016223595 -0.051796339 0.082762092 6.1699017e-39
-0.014897522 -0.052391462 0.082814991 6.2617358e-39
-0.011860605 -0.051035076 0.082509637 6.3539286e-39
-0.0088554639 -0.050246708 0.08480984 5.9855077e-39
-0.0066522891 -0.051420253 0.084954903 5.8014765e-39
-0.0037779328 -0.050950836 0.083593056 5.7103627e-39
-0.0023196973 -0.052016053 0.083255857 5.9869496e-39
-0.10012151 -0.048123039 0.083198488 7.0893287e-39
-0.098798096 -0.048723925 0.083456561 7.2733612e-39
-0.097213052 -0.048962194 0.084452868 7.2744374e-39
-0.058429055 -0.048299406 0.084571265 5.1561071e-39
-0.056167953 -0.048776958 0.084146187 5.155747e-39
-0.053663623 -0.048612501 0.083603196 5.3397795e-39
-0.051044237 -0.048920825 0.083924465 5.1564687e-39
-0.048618581 -0.048659999 0.083886117 4.9724403e-39
-0.046254829 -0.048892032 0.083797902 5.0642772e-39
-0.043822091 -0.048629079 0.083738044 4.8806034e-39
-0.041304145 -0.048793763 0.084054217 5.2497419e-39
-0.038757488 -0.048666745 0.083922476 5.1571889e-39
-0.036238454 -0.048803676 0.083934724 4.9727977e-39
-0.033686411 -0.048819475 0.083967179 4.4199868e-39
-0.031157115 -0.048823409 0.083918676 4.3277912e-39
-0.028592125 -0.048687719 0.083688036 4.5121825e-39
-0.026164595 -0.048666809 0.083561882 4.6958549e-39
-0.023668997 -0.048918262 0.08305113 5.2483042e-39
-0.021258458 -0.048706058 0.08274699 4.6962108e-39
-0.019023683 -0.049827658 0.082809567 5.0646374e-39
-0.016536795 -0.04774734 0.082588971 3.5920254e-39
-0.013731081 -0.049719982 0.082541347 5.7103627e-39
-0.0085444758 -0.048985247 0.084847808 5.8011178e-39
-0.0059459126 -0.048660658 0.084538519 5.4323353e-39
-0.0036460999 -0.048904926 0.08336506 5.2493846e-39
-0.0018893424 -0.047733776 0.083339453 4.9727977e-39
-0.10068487 -0.045709498 0.084235221 6.9967743e-39
-0.098395035 -0.046630003 0.083360516 6.6290764e-39
-0.096376345 -0.046074916 0.084388115 5.5252484e-39
-0.070802286 -0.045176327 0.084864475 4.7891225e-39
-0.069111124 -0.045701757 0.084984124 5.3415802e-39
-0.06686084 -0.045238674 0.084368885 4.7891253e-39
-0.060246538 -0.046543434 0.084659718 5.3404984e-39
-0.058627348 -0.046233259 0.084395826 4.9717159e-39
-0.056352995 -0.046208058 0.084073879 5.3397795e-39
-0.053841989 -0.046048857 0.083634064 5.0635528e-39
-0.051368803 -0.046436764 0.083687231 4.695852e-39
-0.048794992 -0.046084441 0.083816513 4.4199868e-39
-0.046197828 -0.046526942 0.083874851 4.5121825e-39
-0.043489546 -0.046160758 0.084026068 4.1441188e-39
-0.041120145 -0.046369001 0.083702624 4.5128999e-39
-0.038737204 -0.046195783 0.083385915 4.4210658e-39
-0.036294829 -0.046336405 0.083581947 4.1444789e-39
-0.033876218 -0.046326354 0.083578497 3.9600877e-39
-0.031312473 -0.046216682 0.083652154 4.1433999e-39
-0.028925417 -0.046213266 0.083411351 4.1433999e-39
-0.02634787 -0.046313882 0.083011448 4.5121825e-39
-0.023866942 -0.046894569 0.082786202 4.8806034e-39
-0.0055326894 -0.046241619 0.08409676 4.2341522e-39
-0.0036440426 -0.046275981 0.083787374 4.2352326e-39
-0.0013283119 -0.045750685 0.083604909 4.3270723e-39
0.00087156147 -0.045239277 0.082567096 4.2348767e-39
-0.10097849 -0.044400152 0.084230006 6.7201874e-39
-0.097898453 -0.044060644 0.082866758 4.6043739e-39
-0.096279122 -0.043885242 0.083765 4.2359515e-39
-0.093921073 -0.042902224 0.084407188 4.6043711e-39
-0.088596672 -0.042676799 0.084997118 4.7884008e-39
-0.083020657 -0.043257285 0.084614813 4.8805992e-39
-0.081863835 -0.04307726 0.084817231 5.4330485e-39
-0.079258084 -0.042549208 0.084266305 5.0649877e-39
-0.076021351 -0.042834114 0.08465638 5.5234463e-39
-0.07376647 -0.043534677 0.084815867 4.8802391e-39
-0.071311444 -0.043351453 0.084314518 4.6047326e-39
-0.068725362 -0.043909166 0.084059894 4.6969296e-39
-0.066359267 -0.043791816 0.08430291 4.4207029e-39
-0.063818216 -0.043803867 0.084288701 4.6965695e-39
-0.061322868 -0.04364083 0.08384756 5.1571861e-39
-0.058816813 -0.04379414 0.084061168 5.5248896e-39
-0.056187134 -0.043850966 0.083589725 6.0773446e-39
-0.053673595 -0.043642834 0.083471499 5.7092823e-39
-0.051313724 -0.043781534 0.083771303 4.7876889e-39
-0.04886581 -0.043640591 0.083686292 4.1433985e-39
-0.046360567 -0.043779071 0.083525985 4.0515616e-39
-0.043669842 -0.043524366 0.083452396 3.6831435e-39
-0.041186731 -0.043882333 0.083203375 3.6835022e-39
-0.038563516 -0.043770738 0.083032995 3.591308e-39
-0.036186822 -0.044022463 0.083309889 3.4991095e-39
-0.033437539 -0.044309724 0.083228908 3.3147183e-39
-0.031287555 -0.043488368 0.082852013 3.7753363e-39
-0.028651386 -0.043845467 0.082797013 4.1433999e-39
-0.026490591 -0.044577841 0.082936227 4.4199868e-39
-0.0058300421 -0.044915672 0.084091485 4.6029333e-39
-0.0036126103 -0.043798748 0.084265649 4.0508414e-39
-0.001116543 -0.043842178 0.083586328 3.9582898e-39
0.0012787761 -0.043553203 0.082760505 3.8664529e-39
-0.10035853 -0.041051947 0.084315926 5.5248924e-39
-0.095992811 -0.041756034 0.083304256 4.1433943e-39
-0.093731821 -0.04103218 0.083955355 4.5118167e-39
-0.091191381 -0.04135 0.084355369 5.9851419e-39
-0.088914007 -0.041092157 0.084014036 6.2617274e-39
-0.086208612 -0.041073114 0.084196448 4.4196225e-39
-0.083701223 -0.041227691 0.084249094 4.3281457e-39
-0.081384733 -0.041040782 0.084009841 4.6040109e-39
-0.078731231 -0.041345518 0.084034637 4.9720732e-39
-0.076409519 -0.04117864 0.083822824 7.1829662e-39
-0.073777214 -0.041153844 0.083278075 5.8940323e-39
-0.071170092 -0.041807041 0.083239004 4.4210616e-39
-0.068798885 -0.042077545 0.08356265 4.4210616e-39
-0.06580019 -0.042015348 0.083376385 4.3285073e-39
-0.063841082 -0.041421916 0.082887322 4.604734e-39
-0.061195407 -0.041422661 0.083061039 4.9724375e-39
-0.058793701 -0.04117965 0.083304293 5.3404984e-39
-0.056299329 -0.041289296 0.083112329 5.6167293e-39
-0.053923812 -0.041379709 0.082907997 5.7092837e-39
-0.051390588 -0.041400425 0.083051644 5.5252512e-39
-0.048657678 -0.041055724 0.08279933 5.1564673e-39
-0.046264779 -0.041405093 0.083171599 4.5118167e-39
-0.043818351 -0.041335352 0.083127946 4.3274297e-39
-0.04132653 -0.041542768 0.083086178 3.8671746e-39
-0.038942344 -0.041656423 0.082877897 3.6827833e-39
-0.036356896 -0.041643575 0.08289846 3.5909492e-39
-0.033965521 -0.04141311 0.082595691 3.7753363e-39
-0.032261547 -0.041869268 0.082732618 3.9600877e-39
-0.0027021281 -0.04235632 0.084349215 4.6040151e-39
-0.0011957258 -0.041448098 0.083867773 4.6958506e-39
0.0011832538 -0.041451503 0.083065853 4.3274283e-39
0.0028998563 -0.040823653 0.082768053 4.3274283e-39
-0.10038126 -0.038697526 0.083340466 4.6040151e-39
-0.099113211 -0.038636256 0.084034584 4.3277884e-39
-0.096306443 -0.038317814 0.084129959 4.4199826e-39
-0.093992293 -0.038934134 0.083317474 4.6040123e-39
-0.091199435 -0.039375477 0.083597183 5.8011136e-39
-0.088731416 -0.039071988 0.083026022 6.1702563e-39
-0.086348884 -0.039183959 0.082990259 4.8809608e-39
-0.083535455 -0.038812 0.082950659 4.511458e-39
-0.081266671 -0.038903903 0.083118901 4.419261e-39
-0.078792818 -0.039460327 0.082953498 4.5118167e-39
-0.065886289 -0.038245529 0.08483997 4.604734e-39
-0.064576469 -0.037951402 0.084938347 4.604734e-39
-0.058890663 -0.039563544 0.08261767 5.0639129e-39
-0.055620894 -0.039851353 0.083011687 5.4326968e-39
-0.054044574 -0.038569789 0.083502389 5.6170867e-39
-0.05134159 -0.038822196 0.083266765 5.9855077e-39
-0.046535771 -0.039056793 0.082911551 5.5252498e-39
-0.043895375 -0.038430013 0.083713315 5.6178083e-39
-0.039009195 -0.038197033 0.084780432 6.1709807e-39
-0.036564138 -0.038017381 0.084959596 5.1579078e-39
-0.00055442937 -0.039552841 0.084539026 4.8798818e-39
0.0011550321 -0.038688045 0.084004901 4.6962108e-39
0.0040422981 -0.038670219 0.082877137 4.4196239e-39
0.0057681631 -0.038083002 0.083009243 4.5118195e-39
-0.098151132 -0.036853492 0.0840258 4.6958506e-39
-0.096312307 -0.03614619 0.084334679 4.5114608e-39
-0.09369804 -0.03621503 0.084606595 4.4196239e-39
-0.092245169 -0.036479488 0.084959209 4.5118195e-39
-0.084401205 -0.035109125 0.084541023 4.6965737e-39
-0.081154361 -0.035298549 0.08477369 4.7880505e-39
-0.079262912 -0.035976034 0.084902301 4.7880477e-39
-0.076290585 -0.035612911 0.084119186 4.1448377e-39
-0.073824897 -0.036326673 0.083954684 3.867892e-39
-0.071226664 -0.036404185 0.084189542 3.9593688e-39
-0.06877853 -0.036212146 0.084028885 4.0515602e-39
-0.066033758 -0.03625742 0.083725624 4.1437559e-39
-0.064143635 -0.0359556 0.083991468 4.3281471e-39
-0.061059743 -0.035805546 0.08401598 5.2493832e-39
-0.058599878 -0.036094308 0.084391028 5.8943924e-39
-0.056130785 -0.035632044 0.084575392 5.8940323e-39
-0.053684767 -0.036365625 0.084600195 5.8936694e-39
-0.051211227 -0.03627206 0.084798276 6.1698947e-39
-0.04816499 -0.035543166 0.084150299 5.4330584e-39
-0.046219733 -0.036012921 0.083951093 5.3412229e-39
-0.043872274 -0.03621405 0.084166281 5.4337758e-39
-0.041101471 -0.036249388 0.084318653 6.0784264e-39
-0.038484816 -0.036293846 0.084841706 6.0784264e-39
-0.036831412 -0.0364151 0.084959902 5.4341346e-39
-0.023831939 -0.035115823 0.084914029 4.1437559e-39
-0.012832049 -0.036396831 0.082542479 3.5916611e-39
-0.011965761 -0.036665976 0.082603782 3.6838567e-39
0.0019347025 -0.036208451 0.084760189 4.4192666e-39
0.0038519097 -0.036220487 0.084146783 4.4196239e-39
0.0060114488 -0.036088761 0.083652936 4.2352326e-39
0.0079235472 -0.035269491 0.083199739 4.0508414e-39
-0.096370086 -0.034416772 0.082680561 4.6036564e-39
-0.093905449 -0.033955339 0.08286459 4.6040151e-39
-0.091155499 -0.033821482 0.083399497 4.4199826e-39
-0.088795483 -0.033444896 0.083574921 4.1437559e-39
-0.086607896 -0.033519894 0.084150121 4.0512043e-39
-0.083672591 -0.033885662 0.084232748 4.5121825e-39
-0.081269383 -0.0336711 0.083639406 4.9728019e-39
-0.078859381 -0.033751808 0.083287634 4.7887693e-39
-0.076215312 -0.034304477 0.083388671 3.9600877e-39
-0.07367903 -0.034410302 0.083320282 3.6835008e-39
-0.070995681 -0.034226503 0.082848251 3.9590073e-39
-0.068667546 -0.033971824 0.082886174 4.1437559e-39
-0.066338591 -0.0345449 0.082847156 4.2359515e-39
-0.063455351 -0.034266852 0.083059251 4.6969296e-39
-0.06185817 -0.034000546 0.083178133 4.8813209e-39
-0.058602657 -0.034177817 0.083160907 6.0791424e-39
-0.056245346 -0.033844192 0.083299808 6.0791438e-39
-0.053770732 -0.033662997 0.083391607 6.079141e-39
-0.05113769 -0.033745416 0.083527446 6.2624505e-39
-0.049048107 -0.033672687 0.083679572 5.3408613e-39
-0.046283416 -0.033687126 0.083417945 4.8813251e-39
-0.043513183 -0.033704601 0.083220355 5.3419403e-39
-0.041487116 -0.033828791 0.083484836 5.6181657e-39
-0.038866669 -0.033866148 0.083841152 5.8021982e-39
-0.036301818 -0.033554532 0.084030613 5.1575491e-39
-0.033656079 -0.033251178 0.084225819 4.5121825e-39
-0.031206621 -0.033071205 0.084405303 4.6965723e-39
-0.029450733 -0.032676913 0.084537238 4.604734e-39
-0.025642671 -0.033209532 0.084806323 4.5125356e-39
-0.023542205 -0.033940572 0.084949389 4.2359501e-39
-0.010430206 -0.032943532 0.082616866 4.1433985e-39
-0.0088014863 -0.033634514 0.082690723 5.1571889e-39
0.0020778961 -0.034783572 0.084788024 4.6029362e-39
0.0038547826 -0.033765581 0.084929086 4.4185449e-39
0.0066815317 -0.034174655 0.083875299 4.3270681e-39
0.008067254 -0.033839513 0.083227664 4.3270681e-39
-0.08832778 -0.03224276 0.083289295 4.4203428e-39
-0.085788168 -0.031979203 0.083476327 4.3277912e-39
-0.083904751 -0.031673033 0.083115056 4.2355956e-39
-0.081027225 -0.032373026 0.082813412 4.3277912e-39
-0.056293778 -0.032228537 0.082599908 5.2493846e-39
-0.053830054 -0.031906582 0.082782149 5.0657122e-39
-0.051366325 -0.031584632 0.08296442 4.8816796e-39
-0.047997233 -0.032215826 0.083200544 4.4199868e-39
-0.043628603 -0.031813871 0.082853198 4.4203456e-39
-0.04118849 -0.031710759 0.082696848 4.8813237e-39
-0.038483974 -0.031412382 0.08289624 5.1579078e-39
-0.036026899 -0.031206623 0.083363079 4.8809622e-39
-0.033726823 -0.031514756 0.084098734 4.6043781e-39
-0.031162702 -0.031211026 0.084431291 4.4207043e-39
-0.028543508 -0.031239649 0.084620506 4.5125384e-39
-0.026441023 -0.031191554 0.084773265 4.6043725e-39
-0.024015885 -0.031309817 0.084660865 4.2359501e-39
-0.021349862 -0.030577 0.084146604 4.1437587e-39
-0.012894351 -0.031438112 0.082607925 3.4980305e-39
-0.011218097 -0.031662971 0.082792625 3.9590073e-39
-0.0086290017 -0.032393388 0.082992315 4.7891253e-39
-0.0061297636 -0.030805228 0.082663417 4.4199854e-39
-0.0049048029 -0.030073844 0.082998574 4.3277912e-39
-0.00071592256 -0.030113772 0.082542658 5.1571861e-39
0.00023056194 -0.030779228 0.082526624 5.1571889e-39
0.0043247156 -0.032422073 0.084979594 4.6029333e-39
0.0085846502 -0.031178376 0.083799094 5.4326954e-39
0.013366308 -0.030246029 0.083452918 5.7092837e-39
0.015608432 -0.030598562 0.082654208 5.708562e-39
0.018407043 -0.03016305 0.08314389 5.6163664e-39
0.023830405 -0.030543007 0.083819211 5.3397795e-39
0.028703338 -0.030192669 0.08458063 5.1553883e-39
-0.035702471 -0.029397551 0.083122253 4.236313e-39
-0.033600427 -0.029296253 0.083275639 3.8682536e-39
-0.03145 -0.028998729 0.083434924 4.0522833e-39
-0.028911766 -0.028811507 0.083843745 4.2366718e-39
-0.026178543 -0.028669219 0.084196508 4.5121769e-39
-0.023684485 -0.028552493 0.084002443 4.327787e-39
-0.021224981 -0.028927019 0.08417587 3.8675319e-39
-0.019277474 -0.028489696 0.084322184 3.6835008e-39
-0.010488025 -0.027968546 0.082686484 4.143037e-39
-0.0085579939 -0.028614517 0.082812659 4.4192638e-39
-0.0061431499 -0.028725404 0.083126396 4.603655e-39
-0.0029743959 -0.028297924 0.082631923 4.2348739e-39
-0.001015991 -0.028534986 0.082853489 4.5114608e-39
0.00032871589 -0.029138464 0.08290711 4.7880463e-39
0.004202595 -0.028143222 0.082638323 5.0639143e-39
0.009083746 -0.028497841 0.08341305 5.0639157e-39
0.011469278 -0.0286687 0.08345063 5.2486643e-39
0.013973539 -0.028685698 0.083886787 5.6170881e-39
0.01629821 -0.028812546 0.084184311 5.8936736e-39
0.018894127 -0.028468408 0.083705842 6.1691801e-39
0.021362988 -0.028756868 0.083613992 6.0769844e-39
0.023742292 -0.028564546 0.0839388 6.1688199e-39
0.026327759 -0.028522452 0.0846209 6.3532112e-39
0.028581172 -0.028696937 0.084725417 6.1688199e-39
0.031456713 -0.027906483 0.083409131 6.3524895e-39
0.033191819 -0.02752357 0.08270371 5.9844287e-39
-0.030269146 -0.026727324 0.082545549 3.3154385e-39
-0.028512428 -0.026352815 0.08301153 3.6838595e-39
-0.026050579 -0.026128029 0.083144709 4.9727949e-39
-0.023741761 -0.026405418 0.083308421 4.5125398e-39
-0.021246193 -0.026209956 0.083204947 3.6835008e-39
-0.018555539 -0.026146134 0.084068932 3.5916639e-39
-0.016538378 -0.026285784 0.084547445 3.6835008e-39
-0.013956357 -0.025441175 0.084744669 4.0512043e-39
-0.011279208 -0.026307872 0.083539009 4.2355928e-39
-0.0088204537 -0.026594879 0.082968727 4.696208e-39
-0.0061793509 -0.025816619 0.082737237 5.7092809e-39
-0.0039650942 -0.026393145 0.082918786 6.0777033e-39
-0.0013218082 -0.026063075 0.083363086 5.2479454e-39
0.001064254 -0.026385492 0.083315238 5.2479468e-39
0.0036802751 -0.025971461 0.083050504 5.4323367e-39
0.0060801138 -0.026493788 0.083270177 5.1561113e-39
0.0086187609 -0.026017293 0.083732545 5.0639157e-39
0.011163172 -0.026435684 0.083995715 5.0639143e-39
0.013848864 -0.026042305 0.084509343 5.4326968e-39
0.015970299 -0.02616119 0.084761605 5.8014779e-39
0.018696165 -0.026305705 0.08434204 6.5383227e-39
0.021402739 -0.026433017 0.08439751 6.8138306e-39
0.023444785 -0.026348365 0.084702685 6.6294407e-39
0.025864258 -0.027166652 0.084858969 6.2610156e-39
0.029499434 -0.027097616 0.084349781 6.8123915e-39
0.031273253 -0.026399074 0.083720334 6.9967827e-39
0.033373155 -0.026105102 0.083193913 6.7212748e-39
-0.023760047 -0.024801431 0.083040267 5.2501034e-39
-0.021287471 -0.02447832 0.083223194 4.3292261e-39
