# .PCD v0.7 - Point Cloud Data file format
VERSION 0.7
FIELDS x y z
SIZE 4 4 4
TYPE F F F
COUNT 1 1 1
WIDTH 1440
HEIGHT 1
VIEWPOINT 0 0 0 1 0 0 0
POINTS 1440
DATA ascii
0.096169904 -0.21730219 0.86700004
0.096280828 -0.21518196 0.86800003
0.09561529 -0.21134008 0.86200005
0.094062373 -0.2055914 0.84800005
0.089181781 0.14546289 0.80400002
0.089292705 0.14784257 0.80500007
0.089070857 0.14966857 0.80300003
0.089292705 0.1544389 0.80500007
0.089181781 0.15863915 0.80400002
0.089070857 0.16282846 0.80300003
0.089181781 0.16522728 0.80400002
0.088849016 0.16679861 0.80100006
0.088959932 0.16919743 0.80200005
0.088738091 0.17096061 0.80000001
0.088959932 0.17357859 0.80200005
0.088738091 0.17533085 0.80000001
0.088849016 0.17773786 0.80100006
0.088627167 0.17947644 0.79900002
0.088849016 0.18211354 0.80100006
0.088738091 0.18407132 0.80000001
0.088849016 0.18648924 0.80100006
0.088627167 0.18820599 0.79900002
0.088738091 0.19062667 0.80000001
0.088516243 0.19232976 0.79800004
0.088516243 0.19450942 0.79800004
0.088294402 0.19619612 0.79600006
0.088405319 0.19861951 0.79700005
0.088405319 0.20079644 0.79700005
0.088183478 0.20246401 0.79500002
0.088294402 0.20489289 0.79600006
0.088072553 0.20654681 0.79400003
0.088294402 0.20924127 0.79600006
0.088072553 0.21088427 0.79400003
0.088183478 0.21332133 0.79500002
0.087850705 0.2146796 0.79200006
0.087961636 0.21711667 0.79300004
0.087850705 0.21900614 0.79200006
0.088183478 0.22200717 0.79500002
0.088072553 0.22389665 0.79400003
0.088183478 0.22635008 0.79500002
0.087961636 0.22794665 0.79300004
0.088072553 0.23040284 0.79400003
0.087961636 0.23227866 0.79300004
0.088072553 0.2347403 0.79400003
0.087739788 0.2360139 0.79100001
0.087628864 0.23787333 0.79000002
0.087628864 0.24003112 0.79000002
0.087850705 0.24280207 0.79200006
0.087850705 0.24496533 0.79200006
0.087850705 0.24712861 0.79200006
0.088405319 0.2508657 0.79700005
0.095060684 0.27443308 0.85700005
0.096058987 0.27968049 0.86600006
0.095948055 0.28172019 0.86500007
0.096169904 0.28473967 0.86700004
0.096058987 0.28677666 0.86600006
0.096169904 0.28947592 0.86700004
0.096058987 0.29150745 0.86600006
0.096391745 0.29489085 0.86900002
0.096391745 0.29726443 0.86900002
0.096169904 0.29894841 0.86700004
0.09561529 0.29957882 0.86200005
0.098765329 -0.27476948 0.86900002
0.09990187 -0.27553049 0.87900007
0.098765329 -0.23679213 0.86900002
0.098651677 -0.23414879 0.86800003
0.099447265 -0.23364712 0.87500006
0.099219948 -0.23072857 0.87300003
0.098651677 -0.22703622 0.86800003
0.098651677 -0.22466537 0.86800003
0.098651677 -0.22229452 0.86800003
0.098538026 -0.21967031 0.86700004
0.098538026 -0.21730219 0.86700004
0.098765329 -0.21542987 0.86900002
0.097969756 -0.21134008 0.86200005
0.096151285 -0.20510651 0.84600002
0.091605134 0.12380966 0.80600005
0.091377832 0.14546289 0.80400002
0.091491483 0.14784257 0.80500007
0.091377832 0.14985497 0.80400002
0.091377832 0.15863915 0.80400002
0.091377832 0.16303124 0.80400002
0.091150515 0.16700685 0.80200005
0.091150515 0.16919743 0.80200005
0.090809561 0.17074691 0.79900002
0.091036864 0.17336215 0.80100006
0.090923212 0.17533085 0.80000001
0.091036864 0.17773786 0.80100006
0.090923212 0.17970107 0.80000001
0.091036864 0.18211354 0.80100006
0.090923212 0.18407132 0.80000001
0.090923212 0.18625644 0.80000001
0.090695895 0.18797044 0.79800004
0.090809561 0.19038838 0.79900002
0.090582244 0.19208874 0.79700005
0.090809561 0.19475316 0.79900002
0.090354942 0.19594963 0.79500002
0.090354942 0.19812109 0.79500002
0.090468593 0.20054451 0.79600006
0.090241276 0.20220935 0.79400003
0.090354942 0.20463547 0.79500002
0.090127625 0.20628667 0.79300004
0.090354942 0.2089784 0.79500002
0.090127625 0.21061867 0.79300004
0.090241276 0.213053 0.79400003
0.090013973 0.2146796 0.79200006
0.090127625 0.21711667 0.79300004
0.090013973 0.21900614 0.79200006
0.090354942 0.22200717 0.79500002
0.090241276 0.22389665 0.79400003
0.090354942 0.22635008 0.79500002
0.090127625 0.22794665 0.79300004
0.090127625 0.23011266 0.79300004
0.090127625 0.23227866 0.79300004
0.090127625 0.23444465 0.79300004
0.089900322 0.2360139 0.79100001
0.089900322 0.23817444 0.79100001
0.089900322 0.24033497 0.79100001
0.090127625 0.24310865 0.79300004
0.090013973 0.24496533 0.79200006
0.089900322 0.24681658 0.79100001
0.090241276 0.24992141 0.79400003
0.096378602 0.27155104 0.84800005
0.097969756 0.27838865 0.86200005
0.097969756 0.28074309 0.86200005
0.098197065 0.28375441 0.86400002
0.097856104 0.2851209 0.86100006
0.098197065 0.28847426 0.86400002
0.098197065 0.29083419 0.86400002
0.098765329 0.29489085 0.86900002
0.098651677 0.29692236 0.86800003
0.098197065 0.29791397 0.86400002
0.097628795 0.29853621 0.85900003
0.10148808 -0.27571806 0.87200004
0.10276831 -0.27678433 0.88300002
0.10102253 -0.23651963 0.86800003
0.10102253 -0.23414879 0.86800003
0.10172084 -0.23338009 0.87400001
0.10148808 -0.23046426 0.87200004
0.10102253 -0.22703622 0.86800003
0.10102253 -0.22466537 0.86800003
0.10090615 -0.22203843 0.86700004
0.10090615 -0.21967031 0.86700004
0.10090615 -0.21730219 0.86700004
0.10113892 -0.21542987 0.86900002
0.10020784 -0.21109489 0.86100006
0.098345667 -0.20486408 0.84500003
0.093806639 0.14142171 0.80600005
0.093573876 0.14546289 0.80400002
0.093690254 0.14784257 0.80500007
0.093573876 0.14985497 0.80400002
0.093690254 0.1544389 0.80500007
0.093573876 0.15863915 0.80400002
0.093457475 0.16282846 0.80300003
0.093573876 0.16522728 0.80400002
0.093224712 0.16679861 0.80100006
0.093457475 0.1694084 0.80300003
0.093108326 0.17096061 0.80000001
0.093224712 0.17336215 0.80100006
0.092991948 0.17511168 0.79900002
0.093108326 0.17751595 0.80000001
0.092991948 0.17947644 0.79900002
0.092991948 0.18165883 0.79900002
0.092875555 0.18361114 0.79800004
0.092875555 0.18579079 0.79800004
0.092642784 0.18749934 0.79600006
0.09275917 0.18991181 0.79700005
0.09275917 0.19208874 0.79700005
0.092991948 0.19475316 0.79900002
0.092642784 0.19619612 0.79600006
0.092642784 0.19837031 0.79600006
0.09275917 0.20079644 0.79700005
0.092410006 0.20220935 0.79400003
0.092526406 0.20463547 0.79500002
0.092410006 0.20654681 0.79400003
0.092526406 0.2089784 0.79500002
0.092410006 0.21088427 0.79400003
0.092410006 0.213053 0.79400003
0.092293628 0.21495067 0.79300004
0.092410006 0.21739046 0.79400003
0.092293628 0.21928266 0.79300004
0.092410006 0.22172792 0.79400003
0.092293628 0.22361466 0.79300004
0.092293628 0.22578065 0.79300004
0.092177242 0.2276592 0.79200006
0.092293628 0.23011266 0.79300004
0.092177242 0.23198573 0.79200006
0.092293628 0.23444465 0.79300004
0.092060857 0.2360139 0.79100001
0.092177242 0.23847553 0.79200006
0.091944478 0.24003112 0.79000002
0.092060857 0.24249551 0.79100001
0.091944478 0.24434674 0.79000002
0.091944478 0.24650455 0.79000002
0.092293628 0.24960664 0.79300004
0.098112904 0.26994991 0.84300005
0.099276751 0.27548203 0.85300004
0.099160373 0.27748623 0.85200006
0.099509522 0.28079864 0.85500002
0.099276751 0.28247169 0.85300004
0.099742293 0.2861371 0.85700005
0.099742293 0.2884779 0.85700005
0.10032422 0.29251543 0.86200005
0.10067337 0.29589614 0.86500007
0.10055699 0.29791397 0.86400002
0.099975064 0.29853621 0.85900003
0.10386986 -0.27571806 0.87200004
0.10529925 -0.27709779 0.88400006
0.10339338 -0.23651963 0.86800003
0.10339338 -0.23414879 0.86800003
0.10434633 -0.23391414 0.87600005
0.10398897 -0.23072857 0.87300003
0.1035125 -0.2272978 0.86900002
0.1035125 -0.22492422 0.86900002
0.10327427 -0.22203843 0.86700004
0.10327427 -0.21967031 0.86700004
0.10327427 -0.21730219 0.86700004
0.1035125 -0.21542987 0.86900002
0.10244045 -0.21084973 0.86000001
0.10041547 -0.2043792 0.84300005
0.095889032 0.1456438 0.80500007
0.095769919 0.14985497 0.80400002
0.095889032 0.15224013 0.80500007
0.095650792 0.15405521 0.80300003
0.095769919 0.15863915 0.80400002
0.095650792 0.16282846 0.80300003
0.095769919 0.16522728 0.80400002
0.09541256 0.16679861 0.80100006
0.09541256 0.16898645 0.80100006
0.095293447 0.17096061 0.80000001
0.09541256 0.17336215 0.80100006
0.095174335 0.17511168 0.79900002
0.09541256 0.17773786 0.80100006
0.095293447 0.17970107 0.80000001
0.095293447 0.1818862 0.80000001
0.095055208 0.18361114 0.79800004
0.094936095 0.18555796 0.79700005
0.094816975 0.18749934 0.79600006
0.094936095 0.18991181 0.79700005
0.094936095 0.19208874 0.79700005
0.095055208 0.19450942 0.79800004
0.094936095 0.19644259 0.79700005
0.094936095 0.19861951 0.79700005
0.094697863 0.20029256 0.79500002
0.094459623 0.20195468 0.79300004
0.094578736 0.20437808 0.79400003
0.094697863 0.20680694 0.79500002
0.094816975 0.20924127 0.79600006
0.094697863 0.21114986 0.79500002
0.094816975 0.21358967 0.79600006
0.094578736 0.21522173 0.79400003
0.094697863 0.21766424 0.79500002
0.094459623 0.21928266 0.79300004
0.094697863 0.22200717 0.79500002
0.094459623 0.22361466 0.79300004
0.094459623 0.22578065 0.79300004
0.094221398 0.22737177 0.79100001
0.094459623 0.23011266 0.79300004
0.094221398 0.23169284 0.79100001
0.094459623 0.23444465 0.79300004
0.094340511 0.23631227 0.79200006
0.094459623 0.23877665 0.79300004
0.094102278 0.24003112 0.79000002
0.094221398 0.24249551 0.79100001
0.093983158 0.24403745 0.78900003
0.094102278 0.24650455 0.79000002
0.094459623 0.24960664 0.79300004
0.10017723 0.26930946 0.84100002
0.10113017 0.27419022 0.84900004
0.10101105 0.27618349 0.84800005
0.10148752 0.27981338 0.85200006
0.10160664 0.28247169 0.85300004
0.10196399 0.2858032 0.85600007
0.10220222 0.28881451 0.85800004
0.10279781 0.29285479 0.86300004
0.10315516 0.29623821 0.86600006
0.10315516 0.29860362 0.86600006
0.10279781 0.29992637 0.86300004
0.10637348 -0.27603427 0.87300003
0.10588609 -0.23679213 0.86900002
0.10588609 -0.23441856 0.86900002
0.10661718 -0.23364712 0.87500006
0.10649533 -0.23099285 0.87400001
0.10588609 -0.2272978 0.86900002
0.10576424 -0.22466537 0.86800003
0.10552055 -0.22178231 0.86600006
0.10552055 -0.21941693 0.86600006
0.10564239 -0.21730219 0.86700004
0.10576424 -0.21518196 0.86800003
0.1046676 -0.21060455 0.85900003
0.10259619 -0.20413674 0.84200007
0.098087803 0.1456438 0.80500007
0.098209649 0.14802623 0.80600005
0.097965963 0.14985497 0.80400002
0.097844101 0.15186189 0.80300003
0.097722255 0.15386336 0.80200005
0.098087803 0.15663768 0.80500007
0.097965963 0.15863915 0.80400002
0.098087803 0.16103522 0.80500007
0.097722255 0.16262569 0.80200005
0.097722255 0.16481626 0.80200005
0.097478569 0.16659036 0.80000001
0.097722255 0.16919743 0.80200005
0.097600408 0.1711743 0.80100006
0.097600408 0.17336215 0.80100006
0.097356722 0.17511168 0.79900002
0.097356722 0.17729406 0.79900002
0.097478569 0.17970107 0.80000001
0.097356722 0.18165883 0.79900002
0.09723486 0.18361114 0.79800004
0.09723486 0.18579079 0.79800004
0.097113021 0.18773489 0.79700005
0.097113021 0.18991181 0.79700005
0.096991174 0.19184773 0.79600006
0.097113021 0.19426566 0.79700005
0.097113021 0.19644259 0.79700005
0.097113021 0.19861951 0.79700005
0.096991174 0.20054451 0.79600006
0.096625626 0.20195468 0.79300004
0.096625626 0.20412067 0.79300004
0.096625626 0.20628667 0.79300004
0.096869327 0.2089784 0.79500002
0.096869327 0.21114986 0.79500002
0.097113021 0.21385798 0.79700005
0.096869327 0.21549278 0.79500002
0.096869327 0.21766424 0.79500002
0.096503779 0.21900614 0.79200006
0.096625626 0.22144866 0.79300004
0.096503779 0.22333266 0.79200006
0.096747465 0.22606538 0.79400003
0.096503779 0.2276592 0.79200006
0.096625626 0.23011266 0.79300004
0.096381932 0.23169284 0.79100001
0.096625626 0.23444465 0.79300004
0.096381932 0.2360139 0.79100001
0.096503779 0.23847553 0.79200006
0.096260086 0.24003112 0.79000002
0.096381932 0.24249551 0.79100001
0.096138231 0.24403745 0.78900003
0.096260086 0.24650455 0.79000002
0.096503779 0.24929187 0.79200006
0.10247433 0.26930946 0.84100002
0.10332728 0.27386725 0.84800005
0.10344912 0.27650917 0.84900004
0.10393652 0.2801418 0.85300004
0.10418021 0.28313398 0.85500002
0.10454576 0.28647098 0.85800004
0.1046676 0.28915113 0.85900003
0.10539869 0.29353347 0.86500007
0.10564239 0.29658028 0.86700004
0.10564239 0.29894841 0.86700004
0.105155 0.29992637 0.86300004
0.10863341 -0.27571806 0.87200004
0.10825967 -0.23679213 0.86900002
0.10825967 -0.23441856 0.86900002
0.10888257 -0.23338009 0.87400001
0.10863341 -0.23046426 0.87200004
0.10801052 -0.22677468 0.86700004
0.1081351 -0.22466537 0.86800003
0.10788594 -0.22178231 0.86600006
0.10788594 -0.21941693 0.86600006
0.10801052 -0.21730219 0.86700004
0.10825967 -0.21542987 0.86900002
0.10676472 -0.2101142 0.85700005
0.10477144 -0.2038943 0.84100002
0.10041116 0.14582473 0.80600005
0.10041116 0.14802623 0.80600005
0.10016201 0.14985497 0.80400002
0.10016201 0.15205102 0.80400002
0.099912837 0.15386336 0.80200005
0.10028658 0.15663768 0.80500007
0.10003742 0.15844183 0.80300003
0.10016201 0.16083519 0.80400002
0.099912837 0.16262569 0.80200005
0.099912837 0.16481626 0.80200005
0.099788263 0.16679861 0.80100006
0.099912837 0.16919743 0.80200005
0.099788263 0.1711743 0.80100006
0.099788263 0.17336215 0.80100006
0.099539109 0.17511168 0.79900002
0.099663682 0.17751595 0.80000001
0.099663682 0.17970107 0.80000001
0.099663682 0.1818862 0.80000001
0.099539109 0.18384121 0.79900002
0.09941452 0.18579079 0.79800004
0.099289939 0.18773489 0.79700005
0.09941452 0.19015011 0.79800004
0.099040784 0.19160672 0.79500002
0.099165365 0.19402193 0.79600006
0.099165365 0.19619612 0.79600006
0.099040784 0.19812109 0.79500002
0.099165365 0.20054451 0.79600006
0.09866704 0.20169999 0.79200006
0.09866704 0.20386326 0.79200006
0.09866704 0.20602652 0.79200006
0.098916195 0.20871554 0.79400003
0.098916195 0.21088427 0.79400003
0.099165365 0.21358967 0.79600006
0.098916195 0.21522173 0.79400003
0.098916195 0.21739046 0.79400003
0.098542467 0.21872962 0.79100001
0.098791622 0.22144866 0.79300004
0.09866704 0.22333266 0.79200006
0.098916195 0.22606538 0.79400003
0.09866704 0.2276592 0.79200006
0.09866704 0.22982247 0.79200006
0.098542467 0.23169284 0.79100001
0.09866704 0.23414899 0.79200006
0.098542467 0.2360139 0.79100001
0.09866704 0.23847553 0.79200006
0.098542467 0.24033497 0.79100001
0.098542467 0.24249551 0.79100001
0.098417886 0.24434674 0.79000002
0.098542467 0.24681658 0.79100001
0.098916195 0.24992141 0.79400003
0.10502061 0.26994991 0.84300005
0.10601725 0.27483612 0.85100001
0.10639098 0.27813759 0.85400003
0.1068893 0.28178391 0.85800004
0.10713845 0.28478974 0.86000001
0.10738762 0.28780651 0.86200005
0.10726304 0.28982437 0.86100006
0.10788594 0.29387283 0.86600006
0.10763677 0.29555404 0.86400002
0.1075122 0.29756919 0.86300004
0.10726304 0.29923129 0.86100006
0.11050595 -0.27445328 0.86800003
0.11445259 -0.24742231 0.89900005
0.11050595 -0.23651963 0.86800003
0.11050595 -0.23414879 0.86800003
0.1111425 -0.23311308 0.87300003
0.11101519 -0.23046426 0.87200004
0.11037864 -0.22677468 0.86700004
0.11063325 -0.22492422 0.86900002
0.11037864 -0.22203843 0.86700004
0.11050595 -0.21992366 0.86800003
0.11050595 -0.21755281 0.86800003
0.11063325 -0.21542987 0.86900002
0.10923284 -0.21035938 0.85800004
0.10719587 -0.20413674 0.84200007
0.10273997 0.12837175 0.80700004
0.10273997 0.13278022 0.80700004
0.10261267 0.1370187 0.80600005
0.10261267 0.14142171 0.80600005
0.10248536 0.1456438 0.80500007
0.10248536 0.14784257 0.80500007
0.10223073 0.14966857 0.80300003
0.10235805 0.15205102 0.80400002
0.10235805 0.15424706 0.80400002
0.10248536 0.15663768 0.80500007
0.10235805 0.15863915 0.80400002
0.10248536 0.16103522 0.80500007
0.10223073 0.16282846 0.80300003
0.10223073 0.16502176 0.80300003
0.10210342 0.16700685 0.80200005
0.10223073 0.1694084 0.80300003
0.10210342 0.171388 0.80200005
0.10197611 0.17336215 0.80100006
0.1017215 0.17511168 0.79900002
0.1017215 0.17729406 0.79900002
0.10159417 0.17925183 0.79800004
0.1017215 0.18165883 0.79900002
0.10159417 0.18361114 0.79800004
0.10159417 0.18579079 0.79800004
0.10146686 0.18773489 0.79700005
0.10159417 0.19015011 0.79800004
0.10133956 0.19184773 0.79600006
0.10133956 0.19402193 0.79600006
0.10133956 0.19619612 0.79600006
0.10108493 0.19787189 0.79400003
0.10133956 0.20054451 0.79600006
0.10095762 0.20195468 0.79300004
0.10108493 0.20437808 0.79400003
0.10083031 0.20602652 0.79200006
0.10108493 0.20871554 0.79400003
0.10083031 0.21035306 0.79200006
0.10121225 0.21332133 0.79500002
0.10095762 0.21495067 0.79300004
0.10095762 0.21711667 0.79300004
0.100703 0.21872962 0.79100001
0.100703 0.22089015 0.79100001
0.100703 0.22305068 0.79100001
0.10108493 0.22606538 0.79400003
0.10083031 0.2276592 0.79200006
0.10095762 0.23011266 0.79300004
0.100703 0.23169284 0.79100001
0.10083031 0.23414899 0.79200006
0.10057569 0.23571552 0.79000002
0.100703 0.23817444 0.79100001
0.10057569 0.24003112 0.79000002
0.100703 0.24249551 0.79100001
0.10057569 0.24434674 0.79000002
0.100703 0.24681658 0.79100001
0.10121225 0.25023615 0.79500002
0.10846897 0.27283192 0.85200006
0.10936014 0.27741978 0.85900003
0.10974208 0.28074309 0.86200005
0.1099967 0.28375441 0.86400002
0.1099967 0.28611434 0.86400002
0.11025133 0.28914204 0.86600006
0.11012401 0.29117081 0.86500007
0.11037864 0.29421216 0.86700004
0.10974208 0.2948699 0.86200005
0.10961477 0.29687956 0.86100006
0.10948745 0.29888374 0.86000001
0.1128768 -0.27445328 0.86800003
0.1128768 -0.23651963 0.86800003
0.1128768 -0.23414879 0.86800003
0.11365705 -0.23338009 0.87400001
0.11352701 -0.23072857 0.87300003
0.11300684 -0.2272978 0.86900002
0.11313689 -0.22518304 0.87000006
0.11274676 -0.22203843 0.86700004
0.1128768 -0.21992366 0.86800003
0.1128768 -0.21755281 0.86800003
0.11300684 -0.21542987 0.86900002
0.11157638 -0.21035938 0.85800004
0.10962574 -0.2043792 0.84300005
0.10507425 0.11087506 0.80800003
0.10494421 0.12837175 0.80700004
0.10481417 0.13261569 0.80600005
0.10481417 0.1370187 0.80600005
0.10481417 0.14142171 0.80600005
0.10468413 0.1456438 0.80500007
0.10468413 0.14784257 0.80500007
0.10442404 0.14966857 0.80300003
0.10468413 0.15224013 0.80500007
0.10468413 0.1544389 0.80500007
0.10481417 0.15683226 0.80600005
0.10455409 0.15863915 0.80400002
0.10442404 0.16063514 0.80300003
0.104294 0.16262569 0.80200005
0.104294 0.16481626 0.80200005
0.104294 0.16700685 0.80200005
0.104294 0.16919743 0.80200005
0.10416396 0.1711743 0.80100006
0.10416396 0.17336215 0.80100006
0.10390388 0.17511168 0.79900002
0.10390388 0.17729406 0.79900002
0.10364379 0.17902718 0.79700005
0.10390388 0.18165883 0.79900002
0.10377383 0.18361114 0.79800004
0.10390388 0.18602361 0.79900002
0.10364379 0.18773489 0.79700005
0.10377383 0.19015011 0.79800004
0.10351375 0.19184773 0.79600006
0.10351375 0.19402193 0.79600006
0.10351375 0.19619612 0.79600006
0.10325366 0.19787189 0.79400003
0.10338371 0.20029256 0.79500002
0.10325366 0.20220935 0.79400003
0.10338371 0.20463547 0.79500002
0.10312362 0.20628667 0.79300004
0.10338371 0.2089784 0.79500002
0.10299358 0.21035306 0.79200006
0.10325366 0.213053 0.79400003
0.10299358 0.2146796 0.79200006
0.10299358 0.21684286 0.79200006
0.1027335 0.21845308 0.79000002
0.10286354 0.22089015 0.79100001
0.1027335 0.22276869 0.79000002
0.10299358 0.22549593 0.79200006
0.10286354 0.22737177 0.79100001
0.10312362 0.23011266 0.79300004
0.10286354 0.23169284 0.79100001
0.10286354 0.23385337 0.79100001
0.10260345 0.23541716 0.78900003
0.1027335 0.23787333 0.79000002
0.10260345 0.2397273 0.78900003
0.10286354 0.24249551 0.79100001
0.10260345 0.24403745 0.78900003
0.10299358 0.24712861 0.79200006
0.10390388 0.25149521 0.79900002
0.10715494 0.26161495 0.82400006
0.11131629 0.27411282 0.85600007
0.11196651 0.27806568 0.86100006
0.11196651 0.28041744 0.86100006
0.11235663 0.28375441 0.86400002
0.11235663 0.28611434 0.86400002
0.11261672 0.28914204 0.86600006
0.11222659 0.2904976 0.86300004
0.11235663 0.29319412 0.86400002
0.11222659 0.29521197 0.86300004
0.11235663 0.29791397 0.86400002
0.11209655 0.29957882 0.86200005
0.11511488 -0.27413711 0.86700004
0.11524765 -0.23651963 0.86800003
0.11511488 -0.23387904 0.86700004
0.11577875 -0.23284604 0.87200004
0.11591152 -0.23072857 0.87300003
0.11538042 -0.2272978 0.86900002
0.11551321 -0.22518304 0.87000006
0.11524765 -0.22229452 0.86800003
0.11524765 -0.21992366 0.86800003
0.11524765 -0.21755281 0.86800003
0.11538042 -0.21542987 0.86900002
0.11405269 -0.21060455 0.85900003
0.11192831 -0.2043792 0.84300005
0.10714845 0.12837175 0.80700004
0.10701568 0.13261569 0.80600005
0.10714845 0.13718869 0.80700004
0.10688291 0.14124624 0.80500007
0.10701568 0.14362322 0.80600005
0.10688291 0.1456438 0.80500007
0.10688291 0.14784257 0.80500007
0.10675014 0.14985497 0.80400002
0.10701568 0.15242924 0.80600005
0.10688291 0.1544389 0.80500007
0.10675014 0.15863915 0.80400002
0.10688291 0.16103522 0.80500007
0.10648458 0.16262569 0.80200005
0.10661735 0.16502176 0.80300003
0.10635181 0.16679861 0.80100006
0.10635181 0.16898645 0.80100006
0.10621904 0.17096061 0.80000001
0.10635181 0.17336215 0.80100006
0.10608627 0.17511168 0.79900002
0.10608627 0.17729406 0.79900002
0.10582072 0.17902718 0.79700005
0.10621904 0.1818862 0.80000001
0.10595348 0.18361114 0.79800004
0.10595348 0.18579079 0.79800004
0.10568794 0.18749934 0.79600006
0.10582072 0.18991181 0.79700005
0.10555517 0.19160672 0.79500002
0.10555517 0.19377817 0.79500002
0.10555517 0.19594963 0.79500002
0.10528962 0.19762267 0.79300004
0.10555517 0.20029256 0.79500002
0.10528962 0.20195468 0.79300004
0.10555517 0.20463547 0.79500002
0.10528962 0.20628667 0.79300004
0.10542239 0.20871554 0.79400003
0.10515685 0.21035306 0.79200006
0.10528962 0.21278466 0.79300004
0.10515685 0.2146796 0.79200006
0.10502408 0.21656908 0.79100001
0.10475852 0.21817657 0.78900003
0.1048913 0.22061089 0.79000002
0.1048913 0.22276869 0.79000002
0.10515685 0.22549593 0.79200006
0.10502408 0.22737177 0.79100001
0.10528962 0.23011266 0.79300004
0.10502408 0.23169284 0.79100001
0.10502408 0.23385337 0.79100001
0.10462575 0.23511878 0.78800005
0.10475852 0.23757224 0.78900003
0.10462575 0.23942345 0.78800005
0.10502408 0.24249551 0.79100001
0.1048913 0.24434674 0.79000002
0.10515685 0.24712861 0.79200006
0.11046781 0.26415491 0.83200002
0.11365438 0.27411282 0.85600007
0.11418546 0.27774274 0.86000001
0.11418546 0.28009173 0.86000001
0.11458378 0.28342599 0.86300004
0.11445101 0.28545204 0.86200005
0.11471656 0.28847426 0.86400002
0.11458378 0.2904976 0.86300004
0.11484933 0.29353347 0.86500007
0.11445101 0.2948699 0.86200005
0.11458378 0.29756919 0.86300004
0.11445101 0.29957882 0.86200005
0.11829603 -0.27603427 0.87300003
0.11775401 -0.23679213 0.86900002
0.117483 -0.23387904 0.86700004
0.11816053 -0.23284604 0.87200004
0.11829603 -0.23072857 0.87300003
0.11788952 -0.22755936 0.87000006
0.11802503 -0.22544187 0.87100005
0.11775401 -0.22255063 0.86900002
0.11761851 -0.21992366 0.86800003
0.11788952 -0.21805409 0.87000006
0.11788952 -0.21567777 0.87000006
0.11612795 -0.2101142 0.85700005
0.11409537 -0.20413674 0.84200007
0.10948819 0.11087506 0.80800003
0.10921719 0.13261569 0.80600005
0.10908169 0.14124624 0.80500007
0.10921719 0.14362322 0.80600005
0.10894618 0.14546289 0.80400002
0.10921719 0.14802623 0.80600005
0.10894618 0.14985497 0.80400002
0.10921719 0.15242924 0.80600005
0.10894618 0.15424706 0.80400002
0.10921719 0.15683226 0.80600005
0.10894618 0.15863915 0.80400002
0.10894618 0.16083519 0.80400002
0.10867516 0.16262569 0.80200005
0.10881066 0.16502176 0.80300003
0.10853966 0.16679861 0.80100006
0.10867516 0.16919743 0.80200005
0.10853966 0.1711743 0.80100006
0.10853966 0.17336215 0.80100006
0.10813314 0.1748925 0.79800004
0.10826866 0.17729406 0.79900002
0.10813314 0.17925183 0.79800004
0.10840416 0.1818862 0.80000001
0.10813314 0.18361114 0.79800004
0.10826866 0.18602361 0.79900002
0.10786214 0.18749934 0.79600006
0.10786214 0.18967354 0.79600006
0.10759111 0.1913657 0.79400003
0.10759111 0.19353443 0.79400003
0.10759111 0.19570316 0.79400003
0.10759111 0.19787189 0.79400003
0.10772663 0.20029256 0.79500002
0.10732011 0.20169999 0.79200006
0.10745562 0.20412067 0.79300004
0.10732011 0.20602652 0.79200006
0.10759111 0.20871554 0.79400003
0.10732011 0.21035306 0.79200006
0.10759111 0.213053 0.79400003
0.10732011 0.2146796 0.79200006
0.10732011 0.21684286 0.79200006
0.10704911 0.21845308 0.79000002
0.10704911 0.22061089 0.79000002
0.10704911 0.22276869 0.79000002
0.10718461 0.22521122 0.79100001
0.10704911 0.22708431 0.79000002
0.10718461 0.2295323 0.79100001
0.10718461 0.23169284 0.79100001
0.10718461 0.23385337 0.79100001
0.1069136 0.23541716 0.78900003
0.10704911 0.23787333 0.79000002
0.1069136 0.2397273 0.78900003
0.10704911 0.24218893 0.79000002
0.1069136 0.24403745 0.78900003
0.10732011 0.24712861 0.79200006
0.11314683 0.26510739 0.83500004
0.11599245 0.27411282 0.85600007
0.11653446 0.27774274 0.86000001
0.11653446 0.28009173 0.86000001
0.11694098 0.28342599 0.86300004
0.11666998 0.2851209 0.86100006
0.11707649 0.28847426 0.86400002
0.11680548 0.29016095 0.86200005
0.11721199 0.29353347 0.86500007
0.11680548 0.2948699 0.86200005
0.11694098 0.29756919 0.86300004
0.11694098 0.29992637 0.86300004
0.11957464 -0.27350473 0.86500007
0.1201276 -0.23679213 0.86900002
0.11985113 -0.23387904 0.86700004
0.12054231 -0.23284604 0.87200004
0.12040407 -0.23019998 0.87100005
0.1201276 -0.2272978 0.86900002
0.12026584 -0.22518304 0.87000006
0.1201276 -0.22255063 0.86900002
0.1201276 -0.22017704 0.86900002
0.12026584 -0.21805409 0.87000006
0.12026584 -0.21567777 0.87000006
0.11860699 -0.21035938 0.85800004
0.11155692 0.13278022 0.80700004
0.11141869 0.1370187 0.80600005
0.11141869 0.13922021 0.80600005
0.11114223 0.14107078 0.80400002
0.11141869 0.14362322 0.80600005
0.11114223 0.14546289 0.80400002
0.11141869 0.14802623 0.80600005
0.11114223 0.14985497 0.80400002
0.11128046 0.15224013 0.80500007
0.11100398 0.15405521 0.80300003
0.11128046 0.15663768 0.80500007
0.11114223 0.15863915 0.80400002
0.11114223 0.16083519 0.80400002
0.11086574 0.16262569 0.80200005
0.11114223 0.16522728 0.80400002
0.11086574 0.16700685 0.80200005
0.11086574 0.16919743 0.80200005
0.11058927 0.17096061 0.80000001
0.11058927 0.17314573 0.80000001
0.11045104 0.17511168 0.79900002
0.11045104 0.17729406 0.79900002
0.1103128 0.17925183 0.79800004
0.1103128 0.18143149 0.79800004
0.11003633 0.18315096 0.79600006
0.11017456 0.18555796 0.79700005
0.11003633 0.18749934 0.79600006
0.10989809 0.18943524 0.79500002
0.10948338 0.19088365 0.79200006
0.10948338 0.19304693 0.79200006
0.10975984 0.19570316 0.79400003
0.10962161 0.19762267 0.79300004
0.10989809 0.20029256 0.79500002
0.10948338 0.20169999 0.79200006
0.10962161 0.20412067 0.79300004
0.10934515 0.20576641 0.79100001
0.10962161 0.20845267 0.79300004
0.10948338 0.21035306 0.79200006
0.10975984 0.213053 0.79400003
0.10948338 0.2146796 0.79200006
0.10948338 0.21684286 0.79200006
0.10906867 0.21817657 0.78900003
0.10934515 0.22089015 0.79100001
0.10934515 0.22305068 0.79100001
0.10948338 0.22549593 0.79200006
0.10920691 0.22708431 0.79000002
0.10920691 0.2292421 0.79000002
0.10906867 0.23110701 0.78900003
0.10934515 0.23385337 0.79100001
0.10920691 0.23571552 0.79000002
0.10920691 0.23787333 0.79000002
0.10906867 0.2397273 0.78900003
0.10920691 0.24218893 0.79000002
0.10906867 0.24403745 0.78900003
0.10934515 0.24681658 0.79100001
0.11072751 0.25212473 0.80100006
0.11459813 0.26320243 0.82900006
0.11846876 0.27443308 0.85700005
0.11902171 0.27806568 0.86100006
0.11888346 0.28009173 0.86000001
0.11929817 0.28342599 0.86300004
0.11902171 0.2851209 0.86100006
0.11943641 0.28847426 0.86400002
0.11943641 0.29083419 0.86400002
0.11971289 0.29387283 0.86600006
0.11929817 0.29521197 0.86300004
0.11929817 0.29756919 0.86300004
0.11915994 0.29957882 0.86200005
0.12221925 -0.27413711 0.86700004
0.12250118 -0.23679213 0.86900002
0.12221925 -0.23387904 0.86700004
0.12306505 -0.23311308 0.87300003
0.12292409 -0.23046426 0.87200004
0.12250118 -0.2272978 0.86900002
0.12250118 -0.22492422 0.86900002
0.12236021 -0.22229452 0.86800003
0.12250118 -0.22017704 0.86900002
0.12250118 -0.21780346 0.86900002
0.12250118 -0.21542987 0.86900002
0.12080957 -0.2101142 0.85700005
0.11390213 0.12411688 0.80800003
0.1136202 0.13261569 0.80600005
0.11376116 0.13498446 0.80700004
0.11347923 0.1368487 0.80500007
0.11376116 0.13939293 0.80700004
0.11347923 0.14124624 0.80500007
0.1136202 0.14362322 0.80600005
0.11333827 0.14546289 0.80400002
0.11347923 0.14784257 0.80500007
0.11333827 0.14985497 0.80400002
0.11333827 0.15205102 0.80400002
0.11291536 0.1536715 0.80100006
0.11305632 0.15605393 0.80200005
0.11291536 0.15804721 0.80100006
0.11305632 0.1604351 0.80200005
0.11291536 0.16242291 0.80100006
0.11319729 0.16502176 0.80300003
0.11305632 0.16700685 0.80200005
0.11305632 0.16919743 0.80200005
0.11277439 0.17096061 0.80000001
0.11277439 0.17314573 0.80000001
0.11249245 0.1748925 0.79800004
0.11263343 0.17729406 0.79900002
0.11221052 0.17880256 0.79600006
0.11206955 0.1807494 0.79500002
0.11206955 0.18292086 0.79500002
0.11235148 0.18555796 0.79700005
0.11221052 0.18749934 0.79600006
0.11206955 0.18943524 0.79500002
0.11164664 0.19088365 0.79200006
0.11164664 0.19304693 0.79200006
0.11192857 0.19570316 0.79400003
0.11178761 0.19762267 0.79300004
0.11192857 0.20004062 0.79400003
0.11164664 0.20169999 0.79200006
0.11164664 0.20386326 0.79200006
0.11136471 0.20550627 0.79000002
0.11164664 0.2081898 0.79200006
0.11164664 0.21035306 0.79200006
0.11192857 0.213053 0.79400003
0.11150568 0.21440855 0.79100001
0.11164664 0.21684286 0.79200006
0.11122374 0.21817657 0.78900003
0.11150568 0.22089015 0.79100001
0.11150568 0.22305068 0.79100001
0.11164664 0.22549593 0.79200006
0.11136471 0.22708431 0.79000002
0.11136471 0.2292421 0.79000002
0.11122374 0.23110701 0.78900003
0.11136471 0.23355772 0.79000002
0.11136471 0.23571552 0.79000002
0.11150568 0.23817444 0.79100001
0.11136471 0.24003112 0.79000002
0.11150568 0.24249551 0.79100001
0.11108277 0.24372815 0.78800005
0.11122374 0.24619253 0.78900003
0.11192857 0.24992141 0.79400003
0.12080957 0.27443308 0.85700005
0.12165537 0.27871162 0.86300004
0.12165537 0.2810688 0.86300004
0.1219373 0.28408283 0.86500007
0.12165537 0.2857832 0.86300004
0.12207828 0.28914204 0.86600006
0.1219373 0.29117081 0.86500007
0.12221925 0.29421216 0.86700004
0.12179634 0.29555404 0.86400002
0.12207828 0.29860362 0.86600006
0.12559326 -0.27635044 0.87400001
0.12487476 -0.23679213 0.86900002
0.12473106 -0.23414879 0.86800003
0.12530586 -0.23284604 0.87200004
0.12530586 -0.23046426 0.87200004
0.12473106 -0.22703622 0.86800003
0.12487476 -0.22492422 0.86900002
0.12473106 -0.22229452 0.86800003
0.12473106 -0.21992366 0.86800003
0.12473106 -0.21755281 0.86800003
0.12473106 -0.21518196 0.86800003
0.12286297 -0.20962384 0.85500002
0.1161091 0.12411688 0.80800003
0.1159654 0.13278022 0.80700004
0.115678 0.1368487 0.80500007
0.1159654 0.13939293 0.80700004
0.115678 0.14124624 0.80500007
0.1158217 0.14362322 0.80600005
0.115678 0.1456438 0.80500007
0.1159654 0.14820988 0.80700004
0.1158217 0.15022774 0.80600005
0.115678 0.15224013 0.80500007
0.11524691 0.15386336 0.80200005
0.11539061 0.15624852 0.80300003
0.11510321 0.15804721 0.80100006
0.11524691 0.1604351 0.80200005
0.11524691 0.16262569 0.80200005
0.11539061 0.16502176 0.80300003
0.11510321 0.16679861 0.80100006
0.11524691 0.16919743 0.80200005
0.11481582 0.17074691 0.79900002
0.11495952 0.17314573 0.80000001
0.11481582 0.17511168 0.79900002
0.11481582 0.17729406 0.79900002
0.11424102 0.17857794 0.79500002
0.11424102 0.1807494 0.79500002
0.11424102 0.18292086 0.79500002
0.11452841 0.18555796 0.79700005
0.11438471 0.18749934 0.79600006
0.11438471 0.18967354 0.79600006
0.11438471 0.19184773 0.79600006
0.11380991 0.19304693 0.79200006
0.11395361 0.19545668 0.79300004
0.11366621 0.19712426 0.79100001
0.11395361 0.19978867 0.79300004
0.11380991 0.20169999 0.79200006
0.11380991 0.20386326 0.79200006
0.11352252 0.20550627 0.79000002
0.11380991 0.2081898 0.79200006
0.11380991 0.21035306 0.79200006
0.11395361 0.21278466 0.79300004
0.11366621 0.21440855 0.79100001
0.11380991 0.21684286 0.79200006
0.11352252 0.21845308 0.79000002
0.11380991 0.2211694 0.79200006
0.11352252 0.22276869 0.79000002
0.11366621 0.22521122 0.79100001
0.11337882 0.22679687 0.78900003
0.11352252 0.2292421 0.79000002
0.11337882 0.23110701 0.78900003
0.11352252 0.23355772 0.79000002
0.11337882 0.23541716 0.78900003
0.11366621 0.23817444 0.79100001
0.11352252 0.24003112 0.79000002
0.11352252 0.24218893 0.79000002
0.11309142 0.24341886 0.78700006
0.11323512 0.24588048 0.78800005
0.11366621 0.24897712 0.79100001
0.12286297 0.27379262 0.85500002
0.12358147 0.27774274 0.86000001
0.12401257 0.2810688 0.86300004
0.12444367 0.28441125 0.86600006
0.12429997 0.2864455 0.86500007
0.12487476 0.29014367 0.86900002
0.12487476 0.29251727 0.86900002
0.12501848 0.29523021 0.87000006
0.12444367 0.29623821 0.86600006
0.12458737 0.29894841 0.86700004
0.12783407 -0.27603427 0.87300003
0.12768765 -0.2376096 0.87200004
0.12724835 -0.23441856 0.86900002
0.12768765 -0.23284604 0.87200004
0.12768765 -0.23046426 0.87200004
0.12724835 -0.2272978 0.86900002
0.1273948 -0.22518304 0.87000006
0.12710191 -0.22229452 0.86800003
0.12710191 -0.21992366 0.86800003
0.12710191 -0.21755281 0.86800003
0.12519832 -0.21195918 0.85500002
0.12519832 -0.20962384 0.85500002
0.11831607 0.12411688 0.80800003
0.11831607 0.12853082 0.80800003
0.11831607 0.13073778 0.80800003
0.11802321 0.13261569 0.80600005
0.11816964 0.13498446 0.80700004
0.11802321 0.1370187 0.80600005
0.11802321 0.14142171 0.80600005
0.11816964 0.14380141 0.80700004
0.11787678 0.1456438 0.80500007
0.11802321 0.14802623 0.80600005
0.11802321 0.15022774 0.80600005
0.11802321 0.15242924 0.80600005
0.11743749 0.15386336 0.80200005
0.11758392 0.15624852 0.80300003
0.11729106 0.15804721 0.80100006
0.11758392 0.16063514 0.80300003
0.11743749 0.16262569 0.80200005
0.11758392 0.16502176 0.80300003
0.11729106 0.16679861 0.80100006
0.11743749 0.16919743 0.80200005
0.11714463 0.17096061 0.80000001
0.11714463 0.17314573 0.80000001
0.11685176 0.1748925 0.79800004
0.11685176 0.17707217 0.79800004
0.11655891 0.17880256 0.79600006
0.11685176 0.18143149 0.79800004
0.11670534 0.18338104 0.79700005
0.11685176 0.18579079 0.79800004
0.11641248 0.18726379 0.79500002
0.11641248 0.18943524 0.79500002
0.11641248 0.19160672 0.79500002
0.11611961 0.19329068 0.79300004
0.11611961 0.19545668 0.79300004
0.11582676 0.19712426 0.79100001
0.11597318 0.19953673 0.79200006
0.11582676 0.20144533 0.79100001
0.11597318 0.20386326 0.79200006
0.11568032 0.20550627 0.79000002
0.11597318 0.2081898 0.79200006
0.11582676 0.21008748 0.79100001
0.11611961 0.21278466 0.79300004
0.11582676 0.21440855 0.79100001
0.11582676 0.21656908 0.79100001
0.11568032 0.21845308 0.79000002
0.11582676 0.22089015 0.79100001
0.11553389 0.22248672 0.78900003
0.11568032 0.2249265 0.79000002
0.11553389 0.22679687 0.78900003
0.11568032 0.2292421 0.79000002
0.11538745 0.23081408 0.78800005
0.11568032 0.23355772 0.79000002
0.11553389 0.23541716 0.78900003
0.11597318 0.23847553 0.79200006
0.11568032 0.24003112 0.79000002
0.11568032 0.24218893 0.79000002
0.1150946 0.24310954 0.78600001
0.11538745 0.24588048 0.78800005
0.11626603 0.24992141 0.79400003
0.12549119 0.27443308 0.85700005
0.12651619 0.27903455 0.86400002
0.12666263 0.28172019 0.86500007
0.12695549 0.28473967 0.86700004
0.12666263 0.2864455 0.86500007
0.12710191 0.28980982 0.86800003
0.12783407 0.29386371 0.87300003
0.12812693 0.29692692 0.87500006
0.1273948 0.29760653 0.87000006
0.12710191 0.29929322 0.86800003
0.1297711 -0.27508569 0.87000006
0.13006942 -0.2376096 0.87200004
0.1297711 -0.2346883 0.87000006
0.13006942 -0.23284604 0.87200004
0.13021858 -0.23072857 0.87300003
0.12962194 -0.2272978 0.86900002
0.12962194 -0.22492422 0.86900002
0.12932362 -0.22203843 0.86700004
0.12947278 -0.21992366 0.86800003
0.12962194 -0.21780346 0.86900002
0.12768283 -0.21220711 0.85600007
0.12768283 -0.20986903 0.85600007
0.12052304 0.12411688 0.80800003
0.12022472 0.13261569 0.80600005
0.12037388 0.13498446 0.80700004
0.12022472 0.1370187 0.80600005
0.12037388 0.13939293 0.80700004
0.12007556 0.14124624 0.80500007
0.12007556 0.14344503 0.80500007
0.1199264 0.14546289 0.80400002
0.12022472 0.14802623 0.80600005
0.12022472 0.15022774 0.80600005
0.12022472 0.15242924 0.80600005
0.11977722 0.15405521 0.80300003
0.12007556 0.15663768 0.80500007
0.11977722 0.15844183 0.80300003
0.1199264 0.16083519 0.80400002
0.11947891 0.16242291 0.80100006
0.11977722 0.16502176 0.80300003
0.11962807 0.16700685 0.80200005
0.11962807 0.16919743 0.80200005
0.11932975 0.17096061 0.80000001
0.11932975 0.17314573 0.80000001
0.11903142 0.1748925 0.79800004
0.11903142 0.17707217 0.79800004
0.11888226 0.17902718 0.79700005
0.11918059 0.18165883 0.79900002
0.11888226 0.18338104 0.79700005
0.11903142 0.18579079 0.79800004
0.11858394 0.18726379 0.79500002
0.11858394 0.18943524 0.79500002
0.11858394 0.19160672 0.79500002
0.11828561 0.19329068 0.79300004
0.11828561 0.19545668 0.79300004
0.11813645 0.19737346 0.79200006
0.11828561 0.19978867 0.79300004
0.11813645 0.20169999 0.79200006
0.11828561 0.20412067 0.79300004
0.11783813 0.20550627 0.79000002
0.11798729 0.20792694 0.79100001
0.11783813 0.20982186 0.79000002
0.11798729 0.21224801 0.79100001
0.11783813 0.21413748 0.79000002
0.11798729 0.21656908 0.79100001
0.11798729 0.21872962 0.79100001
0.11813645 0.2211694 0.79200006
0.11783813 0.22276869 0.79000002
0.11783813 0.2249265 0.79000002
0.11768895 0.22679687 0.78900003
0.11783813 0.2292421 0.79000002
0.1175398 0.23081408 0.78800005
0.11768895 0.23326209 0.78900003
0.11768895 0.23541716 0.78900003
0.11783813 0.23787333 0.79000002
0.11768895 0.2397273 0.78900003
0.11768895 0.24188238 0.78900003
0.11724148 0.24310954 0.78600001
0.11768895 0.24619253 0.78900003
0.11962807 0.2524395 0.80200005
0.12440126 0.26478988 0.83400005
0.12842864 0.27571395 0.86100006
0.12887612 0.27903455 0.86400002
0.12887612 0.28139448 0.86400002
0.12917446 0.28441125 0.86600006
0.12917446 0.28677666 0.86600006
0.12917446 0.28914204 0.86600006
0.12887612 0.29083419 0.86400002
0.12902528 0.29353347 0.86500007
0.12902528 0.29589614 0.86500007
0.12932362 0.29894841 0.86700004
0.13184363 -0.27445328 0.86800003
0.13245121 -0.2376096 0.87200004
0.13214742 -0.2346883 0.87000006
0.13245121 -0.23284604 0.87200004
0.13214742 -0.22993568 0.87000006
0.13153985 -0.2265131 0.86600006
0.13169174 -0.22440656 0.86700004
0.13153985 -0.22178231 0.86600006
0.13199551 -0.22017704 0.86900002
0.13214742 -0.21805409 0.87000006
0.13032469 -0.21270292 0.85800004
0.13032469 -0.21035938 0.85800004
0.12819818 -0.20462163 0.84400004
0.12455273 -0.18088503 0.82000005
0.12273001 0.11970294 0.80800003
0.12273001 0.12411688 0.80800003
0.12242623 0.13261569 0.80600005
0.12242623 0.1348172 0.80600005
0.12227433 0.1368487 0.80500007
0.12242623 0.13922021 0.80600005
0.12227433 0.14124624 0.80500007
0.12227433 0.14344503 0.80500007
0.12197054 0.14528196 0.80300003
0.12227433 0.14784257 0.80500007
0.12227433 0.15004136 0.80500007
0.12242623 0.15242924 0.80600005
0.12212244 0.15424706 0.80400002
0.12227433 0.15663768 0.80500007
0.12197054 0.15844183 0.80300003
0.12197054 0.16063514 0.80300003
0.12166676 0.16242291 0.80100006
0.12181865 0.16481626 0.80200005
0.12181865 0.16700685 0.80200005
0.12197054 0.1694084 0.80300003
0.12151486 0.17096061 0.80000001
0.12166676 0.17336215 0.80100006
0.12136298 0.17511168 0.79900002
0.12151486 0.17751595 0.80000001
0.12121107 0.17925183 0.79800004
0.12136298 0.18165883 0.79900002
0.12105918 0.18338104 0.79700005
0.12105918 0.18555796 0.79700005
0.12060349 0.18702824 0.79400003
0.12060349 0.18919697 0.79400003
0.1207554 0.19160672 0.79500002
0.12045161 0.19329068 0.79300004
0.12060349 0.19570316 0.79400003
0.12029971 0.19737346 0.79200006
0.12045161 0.19978867 0.79300004
0.12045161 0.20195468 0.79300004
0.12060349 0.20437808 0.79400003
0.12014782 0.20576641 0.79100001
0.12029971 0.2081898 0.79200006
0.11984403 0.20955628 0.78900003
0.12014782 0.21224801 0.79100001
0.11984403 0.21386643 0.78900003
0.12014782 0.21656908 0.79100001
0.11999593 0.21845308 0.79000002
0.12029971 0.2211694 0.79200006
0.11999593 0.22276869 0.79000002
0.12014782 0.22521122 0.79100001
0.11984403 0.22679687 0.78900003
0.11984403 0.22895195 0.78900003
0.11954024 0.23052119 0.78700006
0.11999593 0.23355772 0.79000002
0.11969214 0.23511878 0.78800005
0.11999593 0.23787333 0.79000002
0.11969214 0.23942345 0.78800005
0.11984403 0.24188238 0.78900003
0.11938836 0.24310954 0.78600001
0.12029971 0.24712861 0.79200006
0.1277425 0.26701236 0.84100002
0.13047658 0.2750735 0.85900003
0.13108416 0.27871162 0.86300004
0.13078038 0.28041744 0.86100006
0.13123605 0.28375441 0.86400002
0.13123605 0.28611434 0.86400002
0.13153985 0.28914204 0.86600006
0.13093227 0.29016095 0.86200005
0.13123605 0.29319412 0.86400002
0.13108416 0.29521197 0.86300004
0.13138795 0.29825878 0.86500007
0.13390523 -0.27382091 0.86600006
0.13467836 -0.23733711 0.87100005
0.13436911 -0.23441856 0.86900002
0.13436911 -0.23204497 0.86900002
0.13405986 -0.2291428 0.86700004
0.13344136 -0.22572842 0.86300004
0.13390523 -0.22414771 0.86600006
0.13405986 -0.22203843 0.86700004
0.13436911 -0.22017704 0.86900002
0.13421448 -0.21755281 0.86800003
0.13251361 -0.212455 0.85700005
0.13065811 -0.20717211 0.84500003
0.13065811 -0.20486408 0.84500003
0.12679248 -0.18088503 0.82000005
0.12509161 0.11543168 0.80900002
0.12493698 0.11970294 0.80800003
0.12493698 0.12411688 0.80800003
0.12493698 0.12853082 0.80800003
0.12493698 0.13073778 0.80800003
0.12462773 0.13261569 0.80600005
0.12462773 0.1348172 0.80600005
0.12447311 0.1368487 0.80500007
0.12478235 0.13939293 0.80700004
0.12462773 0.14142171 0.80600005
0.12462773 0.14362322 0.80600005
0.12416385 0.14528196 0.80300003
0.12431849 0.14765893 0.80400002
0.12431849 0.14985497 0.80400002
0.12462773 0.15242924 0.80600005
0.12431849 0.15424706 0.80400002
0.12447311 0.15663768 0.80500007
0.12400923 0.15824452 0.80200005
0.12400923 0.1604351 0.80200005
0.12369999 0.16222014 0.80000001
0.12400923 0.16481626 0.80200005
0.12400923 0.16700685 0.80200005
0.12416385 0.1694084 0.80300003
0.12369999 0.17096061 0.80000001
0.12385461 0.17336215 0.80100006
0.12354536 0.17511168 0.79900002
0.12369999 0.17751595 0.80000001
0.12339073 0.17925183 0.79800004
0.1232361 0.18120411 0.79700005
0.12277222 0.18269078 0.79400003
0.12292686 0.18509233 0.79500002
0.12277222 0.18702824 0.79400003
0.12277222 0.18919697 0.79400003
0.12292686 0.19160672 0.79500002
0.12246298 0.19304693 0.79200006
0.12277222 0.19570316 0.79400003
0.12246298 0.19737346 0.79200006
0.12277222 0.20004062 0.79400003
0.12246298 0.20169999 0.79200006
0.1226176 0.20412067 0.79300004
0.12230836 0.20576641 0.79100001
0.12246298 0.2081898 0.79200006
0.12230836 0.21008748 0.79100001
0.1226176 0.21278466 0.79300004
0.12215374 0.21413748 0.79000002
0.12246298 0.21684286 0.79200006
0.12230836 0.21872962 0.79100001
0.12246298 0.2211694 0.79200006
0.12215374 0.22276869 0.79000002
0.12230836 0.22521122 0.79100001
0.1219991 0.22679687 0.78900003
0.12215374 0.2292421 0.79000002
0.12184448 0.23081408 0.78800005
0.12215374 0.23355772 0.79000002
0.12184448 0.23511878 0.78800005
0.12184448 0.23727112 0.78800005
0.12168986 0.23911963 0.78700006
0.12184448 0.24157579 0.78800005
0.12168986 0.24341886 0.78700006
0.12277222 0.24775268 0.79400003
0.13065811 0.26828232 0.84500003
0.13313212 0.27571395 0.86100006
0.13344136 0.27871162 0.86300004
0.13328673 0.28074309 0.86200005
0.13359597 0.28375441 0.86400002
0.13359597 0.28611434 0.86400002
0.1337506 0.28880817 0.86500007
0.13328673 0.29016095 0.86200005
0.13359597 0.29319412 0.86400002
0.13313212 0.29452783 0.86100006
0.13328673 0.29722437 0.86200005
0.13328673 0.29957882 0.86200005
0.13658534 -0.27445328 0.86800003
0.13721476 -0.2376096 0.87200004
0.13674268 -0.23441856 0.86900002
0.13642798 -0.23151092 0.86700004
0.1359559 -0.22834992 0.86400002
0.13548385 -0.22520529 0.86100006
0.13627063 -0.22414771 0.86600006
0.13642798 -0.22203843 0.86700004
0.13642798 -0.21967031 0.86700004
0.13642798 -0.21730219 0.86700004
0.13485442 -0.212455 0.85700005
0.13296613 -0.20717211 0.84500003
0.13296613 -0.20486408 0.84500003
0.12903222 -0.18088503 0.82000005
0.12918958 -0.17886315 0.82100004
0.12730131 0.11985108 0.80900002
0.12714395 0.12411688 0.80800003
0.12682924 0.12821268 0.80600005
0.12682924 0.13041417 0.80600005
0.12667188 0.13245115 0.80500007
0.12698659 0.13498446 0.80700004
0.12698659 0.13718869 0.80700004
0.12698659 0.13939293 0.80700004
0.12682924 0.14142171 0.80600005
0.12698659 0.14380141 0.80700004
0.12651452 0.14546289 0.80400002
0.12667188 0.14784257 0.80500007
0.12635717 0.14966857 0.80300003
0.12682924 0.15242924 0.80600005
0.12651452 0.15424706 0.80400002
0.12651452 0.1564431 0.80400002
0.12604246 0.15804721 0.80100006
0.12604246 0.16023506 0.80100006
0.1258851 0.16222014 0.80000001
0.12619981 0.16481626 0.80200005
0.12604246 0.16679861 0.80100006
0.12619981 0.16919743 0.80200005
0.12572774 0.17074691 0.79900002
0.1258851 0.17314573 0.80000001
0.12572774 0.17511168 0.79900002
0.12604246 0.17773786 0.80100006
0.12557039 0.17925183 0.79800004
0.12541303 0.18120411 0.79700005
0.12494095 0.18269078 0.79400003
0.12509832 0.18509233 0.79500002
0.12494095 0.18702824 0.79400003
0.12494095 0.18919697 0.79400003
0.12509832 0.19160672 0.79500002
0.12478361 0.19329068 0.79300004
0.12494095 0.19570316 0.79400003
0.12462625 0.19737346 0.79200006
0.12478361 0.19978867 0.79300004
0.12446889 0.20144533 0.79100001
0.12446889 0.20360588 0.79100001
0.12415417 0.20524614 0.78900003
0.12462625 0.2081898 0.79200006
0.12462625 0.21035306 0.79200006
0.12478361 0.21278466 0.79300004
0.12431154 0.21413748 0.79000002
0.12446889 0.21656908 0.79100001
0.12431154 0.21845308 0.79000002
0.12446889 0.22089015 0.79100001
0.12431154 0.22276869 0.79000002
0.12431154 0.2249265 0.79000002
0.12415417 0.22679687 0.78900003
0.12415417 0.22895195 0.78900003
0.12399682 0.23081408 0.78800005
0.12431154 0.23355772 0.79000002
0.12383947 0.23482041 0.78700006
0.12415417 0.23757224 0.78900003
0.12383947 0.23911963 0.78700006
0.12415417 0.24188238 0.78900003
0.12383947 0.24341886 0.78700006
0.12509832 0.2480647 0.79500002
0.13328086 0.26891729 0.84700006
0.13548385 0.27571395 0.86100006
0.13611326 0.27935752 0.86500007
0.13579856 0.2810688 0.86300004
0.13611326 0.28408283 0.86500007
0.1356412 0.28545204 0.86200005
0.13627063 0.28914204 0.86600006
0.1359559 0.29083419 0.86400002
0.13611326 0.29353347 0.86500007
0.13548385 0.29452783 0.86100006
0.1356412 0.29722437 0.86200005
0.13532647 0.29888374 0.86000001
0.13895619 -0.27445328 0.86800003
0.13943645 -0.23733711 0.87100005
0.13911627 -0.23441856 0.86900002
0.13879611 -0.23151092 0.86700004
0.13831584 -0.22834992 0.86400002
0.13783558 -0.22520529 0.86100006
0.13863602 -0.22414771 0.86600006
0.13879611 -0.22203843 0.86700004
0.13895619 -0.21992366 0.86800003
0.13863602 -0.21705154 0.86600006
0.13703515 -0.21220711 0.85600007
0.13511409 -0.20692693 0.84400004
0.13511409 -0.20462163 0.84400004
0.12951101 0.097754076 0.80900002
0.12935092 0.11970294 0.80800003
0.12951101 0.12206078 0.80900002
0.12935092 0.12411688 0.80800003
0.12919083 0.12837175 0.80700004
0.12919083 0.13057598 0.80700004
0.12887067 0.13245115 0.80500007
0.12935092 0.13515173 0.80800003
0.12919083 0.13718869 0.80700004
0.12919083 0.13939293 0.80700004
0.12887067 0.14124624 0.80500007
0.12903075 0.14362322 0.80600005
0.12871057 0.14546289 0.80400002
0.12871057 0.14765893 0.80400002
0.12839039 0.14948219 0.80200005
0.12871057 0.15205102 0.80400002
0.12871057 0.15424706 0.80400002
0.12871057 0.1564431 0.80400002
0.1282303 0.15804721 0.80100006
0.12839039 0.1604351 0.80200005
0.12807022 0.16222014 0.80000001
0.12839039 0.16481626 0.80200005
0.12807022 0.16659036 0.80000001
0.12839039 0.16919743 0.80200005
0.12791014 0.17074691 0.79900002
0.12807022 0.17314573 0.80000001
0.12775004 0.1748925 0.79800004
0.12791014 0.17729406 0.79900002
0.12742987 0.17880256 0.79600006
0.12742987 0.18097676 0.79600006
0.12710969 0.18269078 0.79400003
0.12742987 0.18532516 0.79600006
0.12742987 0.18749934 0.79600006
0.12726979 0.18943524 0.79500002
0.12726979 0.19160672 0.79500002
0.12694961 0.19329068 0.79300004
