# .PCD v0.7 - Point Cloud Data file format
VERSION 0.7
FIELDS x y z
SIZE 4 4 4
TYPE F F F
COUNT 1 1 1
WIDTH 869
HEIGHT 1
VIEWPOINT 0 0 0 1 0 0 0
POINTS 869
DATA ascii
-0.020947557 -0.034901794 0.092000008
-0.019509843 -0.03490179 0.092000008
-0.025177173 -0.035660524 0.094000004
-0.024871744 -0.035660524 0.094000004
-0.028384404 -0.034903429 0.093000002
-0.030629635 -0.036645908 0.096666671
-0.02894037 -0.036137 0.095666684
-0.027181333 -0.036039889 0.095000006
-0.030069659 -0.037177995 0.098000005
-0.036986507 -0.041351035 0.109
-0.03774282 -0.0417304 0.11000001
-0.0010329981 0.051391087 0.22200002
-0.0028618835 0.050034493 0.22400001
-0.0011210021 0.050815754 0.22395653
0.0010198853 0.051651888 0.22400001
0.0029607697 0.052217986 0.22400001
-0.00043577794 0.052824512 0.22400002
0.0011866802 0.053567503 0.22399999
0.0032700982 0.053728234 0.22400001
0.0017780433 0.055220287 0.22400001
0.0038705606 0.055983119 0.22399999
-0.0034290454 0.04909407 0.22655003
-0.0012263738 0.048975807 0.226
0.00099372689 0.049262885 0.2263478
0.0029389581 0.049721155 0.22700001
-0.0027038534 0.051582724 0.22600001
-0.0015972438 0.051686104 0.22525001
0.0014264025 0.050744053 0.22505879
0.0036803011 0.051523272 0.22592594
0.0052996175 0.052029684 0.22675002
-0.0014187758 0.053051382 0.22600001
0.0045045516 0.053502463 0.22509089
0.0060373032 0.053916287 0.22631255
0.0077946894 0.054761283 0.22700001
0.0015121948 0.056082625 0.22520001
0.0035222983 0.056654818 0.22500001
0.0063555562 0.056369338 0.22567737
0.0080376882 0.056430385 0.22691669
0.0042099478 0.058195263 0.22512501
0.0063192821 0.058684245 0.22563328
0.0086173126 0.058932815 0.22679175
0.0068450896 0.060732964 0.22663639
0.0087069599 0.061088938 0.22700004
0.0089010587 0.062505864 0.22700001
-0.0056894831 0.049025394 0.229
-0.0040771477 0.048917145 0.22800003
0.0015333741 0.048617344 0.22816668
0.0036388987 0.049349088 0.22846667
-0.0043946458 0.050187137 0.22800002
0.0046570958 0.05053585 0.22814287
0.0060149534 0.051447175 0.22856253
-0.0021816869 0.05338357 0.22900002
0.0070127929 0.053201713 0.22822224
0.0084096156 0.054006889 0.22866671
-0.00032008826 0.055372935 0.22800002
0.001161569 0.056484178 0.22800002
0.0091100838 0.055950738 0.22818747
0.010235112 0.056406386 0.229
0.0095752655 0.058230419 0.22800003
0.010546724 0.058776811 0.228579
0.0047493544 0.061019853 0.22833335
0.0058285394 0.061932974 0.22866668
0.0096810982 0.062040392 0.22800002
0.011048229 0.06117139 0.22844452
0.0017867285 0.064668752 0.22900002
0.0038639456 0.064048685 0.22900005
0.0062263934 0.063875072 0.22900005
0.0087092826 0.06386321 0.22883339
0.010594761 0.063378558 0.22881819
0.0012596733 0.065474838 0.229
0.0037089295 0.065474831 0.22900003
0.0062263934 0.065474831 0.22900002
0.0087314555 0.065412827 0.22900002
0.017389199 0.04239862 0.23200001
0.018896852 0.042247854 0.23200002
0.020875642 0.04214735 0.23200004
0.016735883 0.043981653 0.23200005
0.01880262 0.043812044 0.23200005
0.02115833 0.04381204 0.23200001
0.023269037 0.044057034 0.23200002
0.014373897 0.046837818 0.23200001
0.016321275 0.04616775 0.23199998
0.018947482 0.046163112 0.23164284
0.021291416 0.046089891 0.23190621
0.023671078 0.046195667 0.23199999
0.025304368 0.046638887 0.23200001
-0.0063015134 0.048385393 0.23
0.0017418711 0.048554126 0.23125
0.0040391055 0.048795298 0.23081818
0.0058736862 0.049613588 0.23120002
0.0085048256 0.049829185 0.23200001
0.01154705 0.049371507 0.23200004
0.013770836 0.04888152 0.23200001
0.016321277 0.048881523 0.23199998
0.019043699 0.04867911 0.23103996
0.021373918 0.048856474 0.23188001
0.023514029 0.048881523 0.23200004
-0.0040771817 0.052348644 0.23100001
0.0065757022 0.050694089 0.23042858
0.0087349806 0.051293239 0.23122856
0.011268003 0.05128549 0.23185186
0.013770837 0.051218372 0.23200001
0.016318884 0.051211096 0.23196666
0.018856842 0.051164974 0.23195241
0.021197323 0.051249575 0.23199999
0.023214215 0.05099909 0.23200002
-0.0031389615 0.053286865 0.23100001
-0.0014438868 0.054737672 0.23
0.0090543674 0.05334577 0.23021427
0.011275996 0.05381969 0.23103224
0.013733913 0.053682353 0.23196155
0.016321277 0.053630617 0.23199998
0.01880262 0.053630628 0.23200004
0.020832809 0.053483285 0.23200002
-0.0010717375 0.055701472 0.2305
0.01139248 0.056165069 0.2304074
0.013784595 0.056242689 0.23168963
0.016321281 0.056281574 0.23199998
0.018802622 0.056281567 0.23200001
0.020102972 0.055665951 0.23200002
0.0017079565 0.059082698 0.2318
0.0026780057 0.059479121 0.23100001
0.012015695 0.058750372 0.23014285
0.013749246 0.058771905 0.23123074
0.016321281 0.058907393 0.23199998
0.018606918 0.058634855 0.23200004
-0.0080177076 0.061730847 0.23100001
-0.0063011823 0.061863475 0.23150001
-0.0039126524 0.062118068 0.23170592
-0.0010765999 0.06199782 0.23153333
0.0013186565 0.061686572 0.23124999
0.0034374171 0.061404228 0.23054546
0.012319389 0.061089959 0.23
0.013832456 0.061265174 0.23075861
0.016245002 0.061271172 0.23199999
0.018143024 0.060490429 0.23200001
-0.0064131231 0.063347191 0.23154546
-0.0035666688 0.063670494 0.23095997
-0.0012784931 0.063740604 0.2304
0.001061043 0.063553371 0.23
0.0034604475 0.063004978 0.23
0.01176779 0.063945822 0.23
0.013744459 0.063848339 0.23104344
0.015787316 0.06352929 0.23200005
-0.0010717927 0.065505072 0.23025002
0.00027496569 0.065424457 0.22999999
0.0045544468 0.066609599 0.23100001
0.0059359688 0.066321246 0.23
0.0085516144 0.065854162 0.23
0.011169151 0.065866485 0.23054546
0.013653321 0.065601908 0.23175
0.019725038 0.037156735 0.23400001
0.021259263 0.037088849 0.23399998
0.023368256 0.037146173 0.234
0.017158944 0.039342664 0.23400001
0.018854255 0.039030235 0.23391309
0.021240974 0.039013296 0.23340002
0.023725664 0.03891813 0.23395239
0.025142347 0.038867462 0.23400001
0.012090116 0.042257238 0.23400001
0.013864206 0.041877083 0.234
0.016497109 0.041334406 0.23340742
0.018531067 0.041020285 0.23322727
0.021328948 0.041058931 0.23303998
0.023774656 0.041159958 0.23331031
0.026034907 0.041458361 0.23400004
0.0094289817 0.044158053 0.23400001
0.01137534 0.043790318 0.23390003
0.013588445 0.043768607 0.23327997
0.015787771 0.04331141 0.23300003
0.01784269 0.042581368 0.23300001
0.024075938 0.043363683 0.23300003
0.026186585 0.043747168 0.23341666
0.027898522 0.043999653 0.23400001
0.0092712548 0.04631079 0.23386666
0.011200927 0.046043213 0.23321427
0.013419779 0.045928437 0.233
0.024656363 0.045420401 0.23300001
0.026332326 0.046072535 0.23326088
0.027993562 0.046122223 0.23399998
-0.0071714292 0.049607042 0.23400001
0.0015722987 0.048846718 0.23400001
0.0065847076 0.049146466 0.23380001
0.0088439425 0.048570376 0.23320831
0.011071075 0.048217371 0.23300001
0.012921702 0.047502358 0.23300001
0.024656363 0.048486553 0.23300001
0.026226139 0.048570916 0.23320837
0.027993564 0.048694652 0.234
0.02425259 0.051514857 0.23300003
0.026166679 0.051164765 0.23333333
0.027946042 0.051032647 0.234
0.022101235 0.054268714 0.23300003
0.02375634 0.053880502 0.23307997
0.026147025 0.053848997 0.23391671
-0.0016551277 0.056519419 0.2335
0.0213858 0.05636014 0.23299995
0.023675941 0.056260217 0.23349999
0.025674572 0.056183845 0.234
-0.00083516043 0.059354115 0.23383333
0.00075030199 0.059479959 0.23315388
0.019086456 0.059669632 0.23300003
0.021152187 0.058890928 0.23299991
0.023814887 0.058785625 0.23389292
0.025142347 0.05873093 0.23400001
-0.0078978566 0.06188678 0.23300001
-0.0071714292 0.061772227 0.23400001
-0.003610716 0.061540723 0.23390909
-0.0015102212 0.061036188 0.23341179
0.00091665814 0.060859323 0.23300003
0.017464152 0.06188678 0.23300001
0.01875118 0.061356828 0.23300003
0.021215182 0.061381679 0.23344004
0.023639804 0.061211035 0.23400003
0.025142347 0.060251579 0.23400001
-0.0056266324 0.064725816 0.23300001
0.017009906 0.064132765 0.23300003
0.01880051 0.06366232 0.23313633
0.021247363 0.063694835 0.23379999
0.023114815 0.063166149 0.23400001
-0.0052706185 0.065573849 0.23400001
0.0091363285 0.067186303 0.23300001
0.012164628 0.067186303 0.23300001
0.013918618 0.066561952 0.23320003
0.016178206 0.066251323 0.23355556
0.018534765 0.065954007 0.23400003
0.020200239 0.065193683 0.23400001
0.019689146 0.034456555 0.23700002
0.021360766 0.034096438 0.23646669
0.023604827 0.034073912 0.23668751
0.025959734 0.03462157 0.237
0.016601859 0.036746114 0.23656251
0.018807637 0.036207285 0.23578577
0.021326145 0.035691958 0.23523816
0.023888491 0.035917938 0.23528008
0.026161384 0.036209572 0.2360741
0.028063675 0.036477994 0.237
0.0096373754 0.038912106 0.23600002
0.011559336 0.038779344 0.23675001
0.013718956 0.03862137 0.23636366
0.015848676 0.038589086 0.23550008
0.017995846 0.037983648 0.23500001
0.024104433 0.037601862 0.23500001
0.026442518 0.038708072 0.23509532
0.028625282 0.038574953 0.23650002
0.0095948 0.041388333 0.23581821
0.011134701 0.040949211 0.23555563
0.0136555 0.040546335 0.23527279
0.015705125 0.04027437 0.23500001
0.02683148 0.040710699 0.23500001
0.028754732 0.041167744 0.23575006
0.030085115 0.040809646 0.23700002
0.0089133848 0.043496974 0.23557898
0.01086916 0.042692352 0.23500001
0.029008785 0.043503426 0.23523085
0.031133913 0.044155426 0.23645458
0.0068135029 0.046639033 0.23685716
0.0081352079 0.046224196 0.2361429
0.029290289 0.046126544 0.23525007
0.031119149 0.046252619 0.23628576
-0.0072020758 0.049437247 0.23500001
0.0021516979 0.049055461 0.23500001
0.0044007064 0.048849791 0.23616667
0.0062483968 0.048165102 0.23594448
0.0077039618 0.047820333 0.23550001
0.029252695 0.048616398 0.23522735
0.031190651 0.048659384 0.23643753
-0.0076161344 0.050797857 0.23600002
0.029167376 0.051247712 0.23547374
0.030801402 0.051234186 0.23683335
0.027158728 0.054400474 0.23500001
0.028689133 0.053788725 0.23566674
0.030195126 0.053598344 0.237
-0.0030181843 0.056419168 0.23614287
-0.0022483761 0.057315845 0.23600002
0.026881063 0.056448236 0.23500004
0.028690081 0.05629427 0.23623079
0.030085113 0.056249589 0.23700002
-0.0056269681 0.059676412 0.23700002
-0.0036391844 0.059005003 0.23646431
-0.0016511179 0.058667544 0.23527275
0.026496381 0.058765553 0.23505008
0.028667191 0.058872122 0.23654169
0.030085113 0.058713816 0.23700002
-0.0080956863 0.061746821 0.23633334
-0.006324389 0.061117955 0.23640004
-0.003890224 0.060620856 0.23525006
0.024295326 0.062131654 0.23500001
0.026177958 0.06151833 0.23524007
0.028526338 0.061150845 0.23654547
0.030085115 0.060253963 0.23700002
0.024030065 0.064046621 0.2350715
0.026068753 0.063872144 0.2353334
0.027944697 0.063384272 0.23657143
0.014025263 0.067381226 0.23500001
0.019141207 0.067163065 0.23500001
0.021378774 0.06628789 0.23525007
0.02368949 0.066152819 0.23582613
0.025923399 0.065826558 0.23650002
0.0019774924 0.06833972 0.23700002
0.0032416973 0.067955248 0.23566668
0.0060845423 0.068853103 0.23700003
0.0086776279 0.068051368 0.23600002
0.011265987 0.06901183 0.23640004
0.013459422 0.068147056 0.2358
0.016453575 0.06856367 0.236
0.018511327 0.068347938 0.23581821
0.021145673 0.068080842 0.23650002
0.023708005 0.067690477 0.23675001
0.01673435 0.034640595 0.2388
0.018772174 0.034116983 0.23850001
0.021095339 0.033107691 0.23810001
0.026732111 0.034215283 0.23799999
0.02780173 0.034520973 0.23833334
0.011923839 0.03727866 0.2388
0.013958164 0.036697205 0.23850001
0.016134601 0.035837758 0.23827273
0.01783892 0.035375264 0.23800001
0.027118774 0.035375264 0.23800001
0.028922269 0.036380026 0.23815385
0.030212058 0.037115239 0.23800001
0.0093323877 0.039628532 0.23800001
0.010833787 0.038463887 0.2381333
0.012812332 0.037695229 0.23800001
0.029567624 0.037824113 0.23799999
0.030608136 0.03889472 0.23807141
0.0085326014 0.041331228 0.238625
0.031374224 0.041138262 0.23842852
0.0071281735 0.044152454 0.23900001
0.0081887618 0.042811565 0.2385
0.031887591 0.043559577 0.23800002
0.032798138 0.043095458 0.23900001
0.0046924604 0.046781749 0.23800001
0.0058985762 0.045977045 0.2382105
0.032226395 0.046241872 0.23859999
0.0039964714 0.048599057 0.23800001
0.0052080075 0.047877286 0.23799999
0.03219939 0.048679631 0.23840001
0.031915214 0.051564075 0.2383
-0.0059656664 0.054355726 0.23900001
-0.0049949531 0.054549873 0.23900001
0.031537745 0.053808186 0.23846667
-0.0058466839 0.056156915 0.23864289
-0.0044089318 0.056364588 0.23817647
0.031309228 0.056294899 0.23837499
-0.008308121 0.059157897 0.23857144
-0.0062678466 0.058698196 0.23842104
-0.0047162804 0.05805935 0.23799999
0.031029321 0.058656663 0.23833333
-0.0084188469 0.060719099 0.23800001
-0.0071651302 0.060250428 0.23799999
0.029567624 0.062312614 0.23799999
0.030695766 0.061119724 0.23849998
0.028979771 0.063815713 0.23827273
0.030449938 0.06342496 0.23899999
0.026538782 0.066501439 0.23800001
0.028397569 0.065680712 0.23900001
0.030338997 0.065421857 0.23900001
0.00121425 0.068772249 0.2385
0.0043238914 0.069692992 0.23900001
0.0050791209 0.069401391 0.23800001
0.008983314 0.069692992 0.23900001
0.01165235 0.069659166 0.23799999
0.013778985 0.069208056 0.23800002
0.016034504 0.069659166 0.23799999
0.019095568 0.069401398 0.23800001
0.020997763 0.069620095 0.23875001
0.023155723 0.068916425 0.23900001
0.025185471 0.067854747 0.23800001
0.011701311 0.070340134 0.23900001
0.013532206 0.07020171 0.23875001
0.015195877 0.070081279 0.23900001
0.017280711 0.032297358 0.24100001
0.019460488 0.031754188 0.24133335
0.020523239 0.032163344 0.24000001
0.014071763 0.034170624 0.2409091
0.016368704 0.033810467 0.24076194
0.018742356 0.032978896 0.24049999
0.020523239 0.032553256 0.24000001
0.012140179 0.036452353 0.24000001
0.013916586 0.03562998 0.24037501
0.015259458 0.035672531 0.24000001
0.0065042716 0.041929629 0.24171428
0.0076738345 0.040968936 0.2418
0.031310856 0.041803449 0.2405
0.0047318926 0.043275774 0.24000001
0.0061178762 0.043484319 0.24042104
0.0078511713 0.042690907 0.24000001
0.03157172 0.043456092 0.24100001
0.032805398 0.044640459 0.24000001
0.0039520729 0.047369827 0.24000001
0.005706667 0.045030367 0.24000001
0.033010431 0.046098124 0.24150002
0.0034646858 0.048734512 0.24000001
-0.0065754922 0.05477811 0.24000001
-0.006780663 0.056349933 0.24033333
-0.008357808 0.05828378 0.2412308
-0.0068679247 0.057799913 0.24000001
0.032000978 0.058853962 0.2404
0.032900646 0.058871601 0.24133335
0.031926423 0.061201055 0.24055555
0.032813635 0.061181638 0.24133335
0.029686121 0.064915769 0.24000001
0.031427532 0.063718721 0.24038893
0.032685619 0.063097782 0.24200001
0.027346661 0.066865318 0.24000001
0.028886659 0.066203885 0.24025001
0.031350888 0.065600373 0.24080002
-0.00053562038 0.069637299 0.24150002
0.00044472999 0.069493122 0.24100001
0.0039520729 0.069984592 0.24000001
0.0059016221 0.069984592 0.24000001
0.0094108107 0.069984592 0.24000001
0.014479638 0.069984592 0.24000001
0.015259458 0.069984592 0.24000001
0.023741029 0.069297358 0.24100001
0.026417598 0.068186931 0.24100001
0.001822632 0.070567802 0.24200001
0.0029955003 0.070421994 0.24150002
0.0071008154 0.070276193 0.24100001
0.0078994278 0.070421994 0.24150002
0.011425328 0.071490109 0.2414
0.013347964 0.071480863 0.24066667
0.016625987 0.071059264 0.24100001
0.018692184 0.070980638 0.24100001
0.02145762 0.070537217 0.24100001
0.014660633 0.034539305 0.24300002
0.0063013807 0.041793242 0.24340002
0.0075545274 0.042040195 0.24300002
0.032425899 0.044014115 0.24300002
0.032820683 0.044408899 0.24300002
0.033656355 0.046710711 0.24333335
0.0024323077 0.049744956 0.24400002
0.0028287158 0.049348548 0.24400002
0.033483379 0.049228169 0.24380001
0.033352155 0.050934181 0.24400002
-0.0078420369 0.056844585 0.24300002
0.033352155 0.057276715 0.24400002
0.033352155 0.058069531 0.24400002
0.033215467 0.062568948 0.24300002
0.032425899 0.065332435 0.24300002
0.02689893 0.068885483 0.24300002
0.028337643 0.068038642 0.24350002
-0.0010011386 0.070922747 0.24366669
0.00058001524 0.070859402 0.24300002
0.0095676575 0.071547411 0.24400002
0.010932231 0.072191179 0.24350002
0.014690799 0.071598187 0.24350002
0.015647592 0.071451575 0.24300002
0.020823348 0.071499906 0.24350002
0.011402327 0.072901003 0.24366669
0.013214613 0.073212326 0.244
0.01591019 0.072974481 0.244
0.01828864 0.072736636 0.24400002
0.010756882 0.082250439 0.24400002
0.0045464854 0.084364623 0.244
0.0063963905 0.083910406 0.24399997
0.0087906979 0.083883636 0.24399997
0.011316516 0.083859392 0.24399999
0.013531741 0.084092572 0.24399999
0.015513781 0.084529787 0.24400002
0.0023332057 0.086511828 0.24400002
0.0039970777 0.085964158 0.24399999
0.0062575294 0.086331733 0.24334618
0.0086536687 0.086189859 0.243375
0.011194474 0.086257331 0.24329631
0.013620292 0.086071879 0.24359998
0.016222728 0.086060539 0.24365385
0.018685048 0.08621452 0.24400002
0.0051858253 0.087835103 0.24300002
0.013189165 0.034425549 0.245
0.0066216215 0.040993091 0.245
0.032382622 0.043431908 0.24566667
0.032870699 0.043683171 0.24633335
0.033834934 0.049432032 0.24520001
0.034225836 0.050552361 0.24600001
0.033762224 0.053968117 0.24700002
0.03354352 0.056088276 0.2454
0.034025192 0.058945172 0.24600001
0.031896714 0.066666208 0.245
0.028688412 0.069076724 0.24650002
-0.0011446736 0.071934044 0.24600001
0.0041879583 0.072231613 0.24633335
0.0060622701 0.072280481 0.24650002
0.0083356984 0.07232935 0.24666667
0.015577364 0.072238669 0.245
0.02373017 0.071624532 0.24700001
0.025433367 0.070535235 0.24600001
0.0086820871 0.073876165 0.24700001
0.011018876 0.07400468 0.24594447
0.01423676 0.074021921 0.24590001
0.016344238 0.073913187 0.24568751
0.018719479 0.074127235 0.24629414
0.021081707 0.073390171 0.24700001
0.0068763173 0.076490074 0.24699999
0.0085817669 0.076239273 0.24699999
0.011282689 0.076246202 0.24624136
0.01390096 0.076256134 0.24595648
0.016167751 0.076061808 0.24610002
0.018609911 0.076223969 0.24695003
0.02011863 0.075838 0.24700001
0.0019271701 0.079516411 0.24700002
0.0039101653 0.078999907 0.24676189
0.0063523515 0.078654625 0.24639995
0.0086034937 0.078845762 0.24613792
0.011237167 0.078896575 0.24583781
0.013932645 0.07880792 0.2459615
0.016319601 0.078752793 0.24636365
0.01848973 0.078702241 0.24688467
0.02011863 0.079650171 0.24700001
-0.00034676227 0.081857227 0.24700001
0.0013258273 0.081067316 0.24669571
0.0038148027 0.081000492 0.24587494
0.0061898516 0.081076995 0.24524999
0.0084923767 0.081293926 0.24499993
0.011265338 0.081293933 0.24499993
0.013926111 0.081069812 0.24528567
0.016189065 0.081264861 0.24560869
0.018632503 0.080941722 0.24626087
0.020975983 0.081326023 0.24689476
0.022526322 0.081857227 0.24700001
-0.00097016233 0.083997987 0.24661112
0.0013210526 0.083741546 0.24567643
0.0036525854 0.083435595 0.24511106
0.0060743261 0.0828363 0.245
0.0084569966 0.082764432 0.24499999
0.011437821 0.082786545 0.24499997
0.013840494 0.082949378 0.24499997
0.016235651 0.083613209 0.24499992
0.01866561 0.083766259 0.24543239
0.021192443 0.083764896 0.24644826
0.02345429 0.083537593 0.24699999
0.025335299 0.084064275 0.24700001
-0.0013669791 0.085511304 0.24654546
0.0011629002 0.085938729 0.24507141
0.0028403089 0.085373759 0.245
0.018827965 0.085373759 0.245
0.020950809 0.085373759 0.245
0.014962292 0.034041271 0.24800001
0.034301821 0.049754634 0.24800001
0.034259725 0.052177478 0.24866669
0.034332916 0.05342827 0.24822225
0.034234669 0.056201141 0.24800001
0.034301821 0.058349978 0.24800001
0.034035601 0.064922921 0.24900001
0.033631071 0.065327451 0.24900001
0.029990287 0.069372766 0.24900001
0.030394819 0.068968236 0.24900001
-0.0019597935 0.072317414 0.24800001
0.027855312 0.070302881 0.24800001
-0.0019597935 0.072720319 0.24800001
0.0023473061 0.073620342 0.24900003
0.0037569632 0.073986769 0.24892312
0.0063093887 0.073967405 0.24800001
0.0077099702 0.074734852 0.24800001
0.021187799 0.074299954 0.24830769
0.022787055 0.073344767 0.24875002
0.0017742198 0.076694787 0.24900004
0.0038224226 0.076162763 0.24850005
0.0060272408 0.076014683 0.24799998
0.0077099702 0.075137764 0.24800001
0.021302477 0.076412715 0.24870838
0.022776142 0.07672175 0.24900003
-0.00098972733 0.079068869 0.24875003
0.0010362735 0.078832336 0.24821742
0.0036809018 0.078159563 0.24800001
0.019394267 0.078361019 0.24800001
0.021199428 0.078973658 0.24829167
0.023222318 0.079174064 0.24892862
-0.0027767587 0.081778392 0.24900001
-0.0013591296 0.081259616 0.24855001
5.4740634e-05 0.080577001 0.24800001
0.021677405 0.080577001 0.24800001
0.023791764 0.081235357 0.24825929
0.026081715 0.081558555 0.24876004
0.028683338 0.081851006 0.24900006
0.030934194 0.08231777 0.24900001
-0.0031798703 0.083718292 0.24888891
-0.002006317 0.08362823 0.24822222
0.024430603 0.083195895 0.24800001
0.026328743 0.083116964 0.24816668
0.028526826 0.083195895 0.24800001
0.034984604 0.053811286 0.25
0.034984604 0.056451306 0.25
0.034984604 0.058820546 0.25
0.034173053 0.066124566 0.25100002
0.031170428 0.069799177 0.252
0.033217456 0.068570964 0.252
-0.0062692594 0.071356401 0.25099999
0.026544863 0.071988784 0.25083336
0.028423429 0.071428895 0.25125
-0.0028102137 0.073688522 0.252
-0.00045432302 0.074109733 0.25100002
0.0010549679 0.074173264 0.25007692
0.023891091 0.074025474 0.25041175
0.025943071 0.07373964 0.25169235
-0.0010678527 0.076418124 0.25116667
0.00079368777 0.07583528 0.25018179
0.023867145 0.076299258 0.25026086
0.02629767 0.076135196 0.25153568
0.028129131 0.076525129 0.252
-0.0053689969 0.079215497 0.252
-0.0035765606 0.078646861 0.25099999
-0.0018447057 0.07816615 0.25049999
0.024289159 0.078496546 0.25
0.026353184 0.078571953 0.2506538
0.028822249 0.078717701 0.25158617
0.030912742 0.079224683 0.25190002
-0.0057595214 0.081018023 0.25166667
-0.0038284019 0.081104152 0.25036362
-0.0023817543 0.080211431 0.25
0.024830701 0.080211431 0.25
0.026590712 0.080437064 0.25
0.028963938 0.080737032 0.25
0.03125044 0.080745921 0.2507368
0.03350281 0.080840193 0.25086668
0.035968419 0.080855854 0.25088888
0.038949128 0.080034308 0.252
-0.0041746227 0.083072469 0.25029999
0.035957012 0.064988635 0.25400001
0.034719288 0.066957079 0.25325
0.036094561 0.066364147 0.25399998
0.034306392 0.068289869 0.25400001
0.029429216 0.072241977 0.25375003
0.030695667 0.071591109 0.25400001
-0.0056985752 0.07254234 0.25300002
-0.0037266016 0.074273355 0.25399998
-0.0024103352 0.074597485 0.25300002
0.027046809 0.073912434 0.25300002
0.028869875 0.073715597 0.25336009
0.030892616 0.074142069 0.25399998
-0.003497883 0.076532006 0.25362498
-0.0021020628 0.076036096 0.25300002
0.02895317 0.076034851 0.25313336
0.031057602 0.076466531 0.25361905
0.0329859 0.076790556 0.25400001
-0.0063626575 0.079135396 0.25371426
-0.0046806373 0.078039244 0.25350001
0.031458817 0.078252427 0.25314286
0.0336206 0.078588627 0.25368005
0.035802267 0.078606233 0.25399998
-0.0068987128 0.081132978 0.25344443
0.034711588 0.064503625 0.257
0.035755411 0.064503625 0.257
0.036411073 0.065539554 0.25575
0.033928912 0.069749005 0.25633335
0.035732787 0.06794513 0.25633335
-0.0090933777 0.071738906 0.25600001
0.03187393 0.071497671 0.2555455
0.033779848 0.071532488 0.25689998
-0.0082615698 0.072570719 0.25600001
-0.0060828933 0.073788166 0.25625002
-0.0048026708 0.074607186 0.25633335
0.031927377 0.07341186 0.255353
0.033871114 0.073727481 0.25613046
0.036059767 0.073903605 0.25674999
0.038317516 0.074410431 0.257
0.040139459 0.074941836 0.257
-0.0078763133 0.077447005 0.257
-0.0062209312 0.076669939 0.25650001
-0.0047395062 0.076100767 0.25544447
0.031955782 0.075187191 0.25500003
0.033850662 0.07610181 0.25522733
0.036368798 0.07630232 0.25573337
0.038793605 0.076354332 0.2562609
0.040949859 0.076212287 0.25684616
-0.0080966922 0.078820981 0.25642857
-0.0066952766 0.078385919 0.25536367
0.036347143 0.078087144 0.25500003
0.038703736 0.077911951 0.25533333
-0.0083328672 0.080676392 0.25500003
0.036187939 0.066179737 0.25800002
0.036290858 0.068959266 0.25883332
0.037506383 0.067530267 0.259
0.034765482 0.070939787 0.25828573
0.036104076 0.071415968 0.2586
0.038301185 0.071878299 0.25900003
-0.0088504087 0.074147686 0.2586
-0.0072414703 0.074201308 0.25819999
0.036872555 0.073277391 0.25800002
0.038911667 0.073344186 0.25847059
0.040971018 0.073891804 0.25862503
0.043397274 0.074415721 0.25900003
0.045753624 0.074599333 0.259
-0.008621335 0.07624919 0.25844446
-0.0072112358 0.075917855 0.25811112
0.041867465 0.075547807 0.25800002
0.043289594 0.075532831 0.25800002
-0.0090406695 0.077974893 0.25844446
0.037228793 0.066101395 0.26000002
0.038103636 0.066682041 0.26116669
0.037228793 0.069480613 0.26000002
0.038516946 0.068918303 0.26073685
0.040539909 0.069261387 0.26183334
0.03680639 0.070536613 0.26000002
0.038935307 0.070801161 0.26011115
0.041336183 0.071320832 0.2605001
0.043857358 0.071498461 0.26129413
0.046069991 0.071600579 0.26183337
0.048582107 0.07171768 0.26200002
-0.010273302 0.073941804 0.26133335
-0.008813059 0.074380472 0.26000002
-0.0071234498 0.074549437 0.26000002
0.041804817 0.073141433 0.26000002
0.043947868 0.073412962 0.26026666
0.046225678 0.073488399 0.26060873
0.048600707 0.072949372 0.26133335
0.050625235 0.072824374 0.26200002
-0.01020263 0.076204099 0.26133338
-0.008813059 0.076239049 0.26000002
-0.010502668 0.077506252 0.26000002
-0.008813059 0.077506252 0.26000002
0.038873795 0.064544931 0.264
0.03723108 0.066009551 0.26300001
0.039145991 0.066312097 0.26370588
0.04080385 0.066832401 0.264
0.03976357 0.06795381 0.26350001
0.041400515 0.068646558 0.26363158
0.043451075 0.069386944 0.26384613
0.045736205 0.06969174 0.264
0.049596313 0.06969174 0.264
0.041931119 0.070709586 0.26300001
0.043870982 0.070541315 0.2632857
0.046461403 0.07068418 0.26333335
0.048982158 0.070931919 0.2633889
0.051006924 0.071422897 0.26353332
0.052813068 0.071407348 0.264
-0.010623853 0.074768715 0.26300001
-0.010623853 0.075623266 0.26300001
0.039495822 0.062183291 0.26675001
0.040135182 0.061511535 0.26525003
0.039175775 0.063533485 0.26555556
0.040625624 0.064001128 0.26620001
0.042785741 0.064627737 0.26700002
0.038805783 0.065650471 0.26500002
0.041375317 0.066063121 0.2652353
0.0435123 0.066399992 0.26640001
0.04609327 0.066850834 0.26699999
0.047774147 0.067013502 0.26700002
0.040958408 0.0678031 0.26500002
0.044056907 0.068173662 0.26518753
0.046411816 0.068591841 0.26563632
0.048787531 0.068811089 0.26615384
0.051145542 0.069262594 0.26615006
0.053013064 0.069392756 0.26685715
0.051578034 0.070386253 0.26500002
0.05285893 0.070275225 0.26566669
0.040265575 0.054259077 0.26900002
0.040784694 0.059023798 0.26871434
0.04092807 0.061141614 0.26842862
0.041730568 0.063452587 0.26845458
0.043729555 0.064496107 0.26880002
0.046034295 0.064805925 0.26900002
0.048656438 0.064893328 0.26900002
0.051045496 0.064893328 0.26900002
0.052502245 0.064893328 0.26900002
0.041857488 0.06508749 0.26800001
0.043980502 0.065564774 0.26842859
0.046197299 0.065966018 0.26830772
0.048675351 0.066329621 0.26843482
0.051236983 0.066474058 0.26840913
0.053537369 0.066478282 0.26883337
0.055561412 0.067078449 0.26900002
0.051980522 0.068244137 0.26800001
0.05399498 0.068394408 0.2682308
0.055561412 0.06751547 0.26900002
0.041369837 0.053975958 0.2705
0.042924125 0.054127704 0.27200001
0.041367959 0.056525882 0.2710667
0.042924125 0.05523245 0.27200001
0.041183002 0.05835608 0.27088892
0.043363396 0.05919173 0.27175003
0.049110692 0.059872374 0.27200001
0.051320184 0.059872374 0.27200001
0.053087775 0.059872374 0.27200001
0.041950531 0.060967401 0.27000001
0.043591022 0.061297853 0.27129412
0.046144255 0.061336078 0.27178946
0.048883647 0.061327972 0.27159998
0.051410906 0.061361954 0.27175003
0.053693414 0.061447989 0.27193341
0.055444557 0.061934561 0.27200001
0.042169858 0.062502675 0.27000001
0.043881465 0.063164882 0.27033332
0.046493758 0.063526921 0.27030432
0.048834231 0.063408487 0.27033332
0.051106907 0.063593142 0.27026084
0.053591859 0.063642785 0.27074999
0.055810645 0.063985407 0.27158827
0.057654042 0.064144053 0.27200001
0.051381476 0.065134563 0.27000001
0.054326687 0.065447882 0.27000001
0.056330767 0.066229172 0.27047056
0.05777505 0.065696016 0.27160001
0.042794596 0.054080553 0.27400002
0.053032979 0.054525699 0.27400002
0.0404208 0.05598991 0.273
0.043481279 0.056704666 0.27341667
0.046429962 0.057048198 0.27400002
0.048893113 0.05657338 0.27399999
0.051220596 0.056306284 0.27399999
0.05359526 0.056235991 0.27400002
0.044241253 0.058483768 0.27308333
0.046228778 0.058429554 0.27352634
0.048612572 0.058633327 0.27330431
0.051225811 0.058575228 0.27316663
0.053803746 0.058505308 0.27328569
0.05551172 0.059061144 0.27387503
0.044856023 0.060092494 0.273
0.046186596 0.060092494 0.273
0.048404206 0.060092494 0.273
0.0512871 0.060092494 0.273
0.054280873 0.060314253 0.273
0.056200273 0.061213527 0.27316666
0.058062918 0.061836284 0.27342859
0.056683283 0.063344993 0.273
0.057984281 0.063551962 0.273
0.041846894 0.051731784 0.27571431
0.043263149 0.052197561 0.27700001
0.048738405 0.052272562 0.27699998
0.050948124 0.052041788 0.27699998
0.052713588 0.052422572 0.27700001
0.04197029 0.053500533 0.27560002
0.043719906 0.054066576 0.27638462
0.04624534 0.054292321 0.27650002
0.048691325 0.053944021 0.27604002
0.051273774 0.053848155 0.27555004
0.053517468 0.05401947 0.27561539
0.055452026 0.054535586 0.27539998
0.044147428 0.055867206 0.27550003
0.046285503 0.056090884 0.27528575
0.048684355 0.055767164 0.27500001
0.050769284 0.055618238 0.27500001
0.055780806 0.056104597 0.27574998
0.056110457 0.058509782 0.27600002
0.058023341 0.060642786 0.2755
0.04448206 0.049174912 0.27900001
0.047201682 0.049174912 0.27900001
0.048882063 0.048830554 0.27893338
0.051263038 0.049276669 0.27808338
0.05312971 0.049901947 0.27800003
0.044067059 0.051409487 0.2786667
0.046398688 0.051301602 0.27882352
0.048501521 0.050975248 0.27835298
0.051323131 0.050767601 0.27800006
0.053271648 0.051232275 0.27857146
0.044451661 0.053127985 0.27800003
0.045980379 0.052974209 0.27812502
0.05480887 0.053610548 0.27850002
0.055162117 0.054418404 0.27800003
0.056886461 0.05674459 0.27833334
0.057626896 0.055973962 0.27900001
0.056517053 0.058031566 0.27800003
0.057853527 0.0607333 0.27900001
0.046056718 0.049098447 0.28
0.043390535 0.050488405 0.28
0.045460306 0.050442915 0.28
0.053739391 0.051170744 0.28
0.054129355 0.053380027 0.28024998
0.055885628 0.053997181 0.28049999
0.057833444 0.057084382 0.28
0.057378549 0.058297429 0.28
0.057943687 0.059014838 0.28016666
0.057378549 0.061178435 0.28
0.058515787 0.060723539 0.28
0.056352668 0.054208726 0.28400001
0.05605093 0.054242399 0.28600001
0.057414208 0.056180149 0.287
0.056171004 0.05410669 0.289
