ply
format ascii 1.0
comment PCL generated
element vertex 670
property float x
property float y
property float z
element camera 1
property float view_px
property float view_py
property float view_pz
property float x_axisx
property float x_axisy
property float x_axisz
property float y_axisx
property float y_axisy
property float y_axisz
property float z_axisx
property float z_axisy
property float z_axisz
property float focal
property float scalex
property float scaley
property float centerx
property float centery
property int viewportx
property int viewporty
property float k1
property float k2
end_header
-0.0329578 -0.037936728 0.1
-0.032631028 -0.036018878 0.101
-0.031718727 -0.035582501 0.1006
-0.034002312 -0.036564786 0.10300001
-0.040069606 -0.038663402 0.11100001
-0.039442617 -0.039243788 0.11137503
0.019693354 -0.027884243 0.60200006
0.021649402 -0.027884243 0.60200006
0.023116438 -0.027884243 0.60200006
0.026539521 -0.027884243 0.60200006
0.027517546 -0.027884243 0.60200006
0.016759282 -0.025928196 0.60200006
0.018715329 -0.025928194 0.60200006
0.021649402 -0.025928196 0.60200006
0.023078039 -0.025885126 0.60100001
0.026029278 -0.02590666 0.60150003
0.028006557 -0.025928196 0.60200006
0.01089114 -0.022994123 0.60200006
0.013961417 -0.023687255 0.60185719
0.016750002 -0.023959415 0.60166669
0.018683881 -0.023932688 0.60100001
0.021601453 -0.023919595 0.6006667
0.023065239 -0.023919592 0.6006667
0.026490714 -0.023928082 0.60088885
0.028464012 -0.023946142 0.60133338
0.030832712 -0.023768904 0.60180002
0.008935092 -0.020451263 0.60200006
0.01089114 -0.020549065 0.60200006
0.01380936 -0.020526307 0.60133338
0.016731443 -0.02051493 0.60100001
0.018662976 -0.020979831 0.60033339
0.021577477 -0.020968182 0.60000002
0.023039639 -0.020968182 0.60000002
0.026466586 -0.020979831 0.60033333
0.028448233 -0.02051493 0.60100001
0.031404078 -0.020532133 0.60150003
-0.00084514532 -0.019082028 0.60200006
0.0060010212 -0.019082028 0.60200006
0.0089350929 -0.019082028 0.60200006
0.01089114 -0.019082028 0.60200006
0.013802245 -0.019050332 0.60100001
0.016731443 -0.019050332 0.60100001
0.018653154 -0.01950602 0.59999996
0.021577477 -0.01950602 0.60000002
0.023039639 -0.01950602 0.60000002
0.026451349 -0.01950602 0.59999996
0.028448233 -0.019050332 0.60100001
0.031395376 -0.019060897 0.60133338
-0.012907439 -0.015495942 0.60200006
-0.011603408 -0.015658947 0.60200006
-0.0086639943 -0.015650274 0.60166669
-0.0067132884 -0.015658947 0.60200006
-0.0039748214 -0.015561144 0.60200006
-0.00084514526 -0.016147958 0.60200006
0.0013554082 -0.015414441 0.60200006
0.0040449738 -0.015658947 0.60200006
0.0055120098 -0.016147958 0.60200006
0.008935092 -0.016147958 0.60200006
0.01089114 -0.016147958 0.60200006
0.013802245 -0.016121134 0.60100001
0.016731443 -0.016121134 0.60100001
0.018653154 -0.01609431 0.59999996
0.021577477 -0.01609431 0.60000002
0.023039639 -0.01609431 0.59999996
0.026451349 -0.01609431 0.59999996
0.028416678 -0.016102709 0.60033333
0.031395376 -0.016130075 0.60133332
-0.015515503 -0.014191911 0.60200006
-0.013070444 -0.014191911 0.60200006
-0.011603408 -0.014191911 0.60200006
-0.0086639943 -0.014184053 0.60166669
-0.0067132884 -0.014191911 0.60200006
-0.0037792167 -0.014191911 0.60200006
-0.00084514532 -0.014191911 0.60200006
0.0011109023 -0.014191911 0.60200006
0.0040449738 -0.014191911 0.60200006
0.0055120094 -0.014191911 0.60200006
0.0089350911 -0.014191911 0.60200006
0.01089114 -0.014191911 0.60200006
0.013802245 -0.014168336 0.60100001
0.016731443 -0.014168336 0.60100001
0.018662976 -0.01415262 0.60033339
0.021577477 -0.014144761 0.60000002
0.023039639 -0.014144761 0.60000002
0.026451349 -0.014144761 0.60000002
0.028448233 -0.014168336 0.60100001
0.030915337 -0.014180124 0.60150003
-0.015515503 -0.011257838 0.60200006
-0.013070443 -0.011257838 0.60200006
-0.011603408 -0.011257838 0.60200006
-0.0086639933 -0.011251605 0.60166669
-0.0067132884 -0.011257838 0.60200006
-0.0037792167 -0.011257838 0.60200006
-0.00084514526 -0.011257838 0.60200006
0.0011109023 -0.011257838 0.60200006
0.0040449738 -0.011257838 0.60200006
0.0055120089 -0.011257838 0.60200006
0.0089350929 -0.011257838 0.60200006
0.01089114 -0.011257838 0.60200006
0.013806988 -0.011243115 0.60122228
0.016731443 -0.011239138 0.60100001
0.018677153 -0.011234622 0.60077775
0.021589465 -0.01122613 0.60033339
0.023052439 -0.011226129 0.60033327
0.026485821 -0.011234622 0.60077775
0.028448233 -0.011239138 0.60100001
0.030923769 -0.011251334 0.60166669
-0.015515503 -0.0083237672 0.60200006
-0.013070444 -0.0083237672 0.60200006
-0.011603408 -0.0083237672 0.60200006
-0.0086639943 -0.0083191581 0.60166669
-0.0067132884 -0.0083237672 0.60200006
-0.0037792167 -0.0083237672 0.60200006
-0.00084514532 -0.0083237672 0.60200006
0.0011109023 -0.0083237672 0.60200006
0.0040449738 -0.0083237672 0.60200006
0.0055120094 -0.0083237672 0.60200006
0.008935092 -0.0083237672 0.60200006
0.01089114 -0.0083237672 0.60200006
0.013817015 -0.0083191581 0.60166669
0.016731443 -0.0083099408 0.60100001
0.018684242 -0.0083099408 0.60100001
0.02161344 -0.0083099408 0.60100001
0.023078039 -0.0083099408 0.60100001
0.026495434 -0.0083099408 0.60100001
0.028495571 -0.0083237672 0.60200006
0.03094063 -0.0083237672 0.60200006
-0.015489729 -0.0073335413 0.60100001
-0.012907439 -0.0070197359 0.60200006
-0.011603408 -0.0068567316 0.60200006
-0.0085430769 -0.0064871255 0.60175008
-0.0067132884 -0.0063677193 0.60200006
-0.0037792167 -0.0063677197 0.60200006
-0.00084514526 -0.0063677193 0.60200006
0.0011109022 -0.0063677197 0.60200006
0.0040449738 -0.0063677193 0.60200006
0.0055120098 -0.0063677193 0.60200006
0.0089350929 -0.0063677197 0.60200006
0.01089114 -0.0063677193 0.60200006
0.013817014 -0.0063641942 0.60166675
0.016731443 -0.0063571422 0.60100001
0.01868424 -0.0063571418 0.60100001
0.02161344 -0.0063571422 0.60100001
0.023084573 -0.0063586347 0.60116667
0.026241193 -0.0065022078 0.60157144
0.028104359 -0.0061721145 0.60200006
0.030451618 -0.0068567316 0.60200006
-0.0076913121 -0.0034336487 0.60200006
-0.0067132884 -0.0034336487 0.60200006
-0.0037792167 -0.0034336487 0.60200006
-0.00084514532 -0.0034336487 0.60200006
0.0011109023 -0.0034336487 0.60200006
0.0040449738 -0.0034336487 0.60200006
0.0055120094 -0.0034336487 0.60200006
0.0089350929 -0.0034336487 0.60200006
0.01089114 -0.0034336487 0.60200006
0.013825212 -0.0034336487 0.60200006
0.016731443 -0.0034279451 0.60100001
0.018684242 -0.0034279451 0.60100001
0.021649402 -0.0034336487 0.60200006
0.023116438 -0.0034336487 0.60200006
0.026050508 -0.0034336487 0.60200006
0.027517546 -0.0034336487 0.60200006
-0.0035347107 -0.0022111193 0.60200006
-0.00084514532 -0.0019666133 0.60200006
0.0011109022 -0.0019666133 0.60200006
0.0040449738 -0.0019666133 0.60200006
0.0055120094 -0.0019666133 0.60200006
0.0089350911 -0.0019666133 0.60200006
0.01089114 -0.0019666133 0.60200006
0.013825211 -0.0019666133 0.60200006
0.016745362 -0.0019645737 0.60150003
0.018705238 -0.0019652536 0.60166669
0.021649402 -0.0019666133 0.60200006
0.023116438 -0.0019666133 0.60200006
0.025887504 -0.0021296174 0.60200006
0.0015999142 0.00047844605 0.60200006
0.0040449738 0.00096745789 0.60200006
0.0056098113 0.001260865 0.60200006
0.008935092 0.0014564699 0.60200006
0.01089114 0.0014564698 0.60200006
0.013825212 0.0014564699 0.60200006
0.016750002 0.0014562048 0.60166669
0.018715329 0.0014564699 0.60200006
0.0216494 0.0014564698 0.60200006
0.022953434 0.00080445391 0.60200006
0.0094241034 0.0034125175 0.60200006
0.01089114 0.0034125175 0.60200006
0.013825212 0.0034125175 0.60200006
0.016759282 0.0034125175 0.60200006
0.018715329 0.0034125175 0.60200006
0.021649402 0.0034125175 0.60200006
0.0099131158 0.0053685647 0.60200006
0.01089114 0.0058575766 0.60200006
0.013964929 0.0060671531 0.60200006
0.016759282 0.0053685647 0.60200006
0.018593077 0.0062243356 0.60200006
0.024665147 -0.032883245 0.60400003
0.026627693 -0.032883245 0.60400003
0.021721328 -0.031901974 0.60400003
0.023683876 -0.031901974 0.60400003
0.026627693 -0.031901974 0.60400003
0.028099604 -0.031901974 0.60400003
0.0094554136 -0.027976882 0.60400003
0.010927323 -0.027976882 0.60400003
0.014067398 -0.028369391 0.60400003
0.015820581 -0.028444357 0.60350001
0.018639306 -0.029057248 0.60350007
0.021703346 -0.029424818 0.60350001
0.02378461 -0.029190106 0.6030001
0.026583606 -0.029400032 0.60300004
0.028160509 -0.029116053 0.60320008
0.031034991 -0.028950436 0.60383338
0.032515332 -0.028467517 0.60400003
-0.0033011357 -0.025033062 0.60400003
-0.0018292262 -0.025033062 0.60400003
0.0013108475 -0.025425572 0.60400003
0.0040584123 -0.0255237 0.60400003
0.0060209581 -0.025523698 0.60400003
0.0092918677 -0.025687246 0.60400003
0.010927323 -0.026014335 0.60400003
0.013848177 -0.025971266 0.60300004
0.030992024 -0.025971266 0.60300004
0.033169512 -0.025687246 0.60400003
-0.0077168643 -0.023070516 0.60400003
-0.0067355912 -0.023561154 0.60400003
-0.0037917721 -0.023561152 0.60400003
-0.0018292262 -0.023561154 0.60400003
0.0011140145 -0.023554785 0.60383338
0.004055053 -0.023542054 0.60350001
0.0060123806 -0.023528783 0.60316676
0.0095377238 -0.023816038 0.60300004
0.010909232 -0.024501793 0.60300004
0.013358353 -0.024991617 0.60300004
0.032216582 -0.024256881 0.60300004
0.033496603 -0.023561154 0.60400003
0.03545915 -0.023561154 0.60400003
-0.0080396971 -0.02044268 0.60366672
-0.0067300154 -0.020600673 0.60350001
-0.0037868114 -0.020589022 0.60316676
-0.0018261976 -0.020583199 0.60300004
0.0011127476 -0.020583199 0.6030001
0.0040516932 -0.020583199 0.60300004
0.0055211661 -0.020583199 0.60300004
0.0089499354 -0.021073023 0.60300004
0.033496603 -0.020617332 0.60400003
0.03545915 -0.020617332 0.60400003
-0.010643033 -0.019113727 0.60300004
-0.008193912 -0.019113727 0.60300004
-0.0067244396 -0.019113727 0.60300004
-0.0037854945 -0.019113727 0.60300004
0.0011127476 -0.019113727 0.60300004
0.0040516932 -0.019113727 0.60300004
0.0050313417 -0.019113727 0.60300004
0.033496603 -0.019145424 0.60400003
0.03545915 -0.019145424 0.60400003
-0.010643033 -0.017154429 0.60300004
-0.008193912 -0.017154429 0.60300004
-0.0067244396 -0.017154429 0.60300004
-0.003540582 -0.016909517 0.60300004
0.00091681798 -0.01676257 0.60300004
0.0040516932 -0.017154429 0.60300004
0.033496603 -0.016201606 0.60400003
0.03545915 -0.016201606 0.60400003
0.032461498 -0.014215485 0.60300004
0.033496603 -0.01423906 0.60400003
0.032461498 -0.012256187 0.60300004
0.032515332 -0.010804604 0.60400003
0.032515332 -0.0083514219 0.60400003
0.031249989 -0.0061356239 0.60325003
0.032515332 -0.0073701488 0.60400003
0.028542902 -0.0034393526 0.60300004
0.030552786 -0.0034450563 0.60400003
0.026583606 -0.0014800559 0.60300004
0.027920822 -0.0021353327 0.60366672
0.023971209 0.0017854385 0.6030001
0.026612997 0.0014610436 0.60366672
0.023644662 0.0034181857 0.60300004
0.026627693 0.0034238545 0.60400003
0.015807474 0.006846955 0.60300004
0.019726068 0.0073367795 0.60300004
0.021685364 0.0063571311 0.60300004
0.023662629 0.0063619968 0.60344452
0.026627693 0.0053864005 0.60400003
0.019236244 0.0092960764 0.60300004
0.021685364 0.0092960764 0.60300004
0.023193236 0.0093114916 0.60400003
0.021685364 0.010275724 0.60300004
0.022702601 0.010292765 0.60400003
0.01985692 -0.037977304 0.60700005
0.020843068 -0.037977304 0.60700005
0.023801507 -0.037977304 0.60700005
0.026759947 -0.03847038 0.60700005
0.028732242 -0.03847038 0.60700005
0.031690683 -0.03847038 0.60700005
0.033169903 -0.037977304 0.60700005
0.011967746 -0.036005013 0.60700005
0.014433112 -0.036005013 0.60700005
0.015912334 -0.036498085 0.60700005
0.018860141 -0.036478315 0.60666674
0.02131816 -0.036468431 0.60650003
0.023768561 -0.036448117 0.60616666
0.026715863 -0.036437958 0.60600001
0.028497795 -0.0365486 0.60619998
0.031327706 -0.036294188 0.60633332
0.033156443 -0.036483258 0.60675007
0.036128342 -0.036498085 0.60700005
-0.0031531742 -0.033375289 0.60700005
-0.0018383117 -0.033539645 0.60700005
0.001120129 -0.033539645 0.60700005
0.0030924228 -0.033539645 0.60700005
0.0060508638 -0.033539645 0.60700005
0.0094982609 -0.033526033 0.60675001
0.01146522 -0.033512425 0.60650003
0.014421224 -0.033512425 0.60650003
0.015886119 -0.033484392 0.60600001
0.01882905 -0.033466246 0.60566664
0.021775272 -0.033457167 0.60549998
0.023526505 -0.033527426 0.60500002
0.026671777 -0.033920586 0.60500002
0.028146122 -0.033429138 0.60500002
0.031107869 -0.033443153 0.60525
0.03311526 -0.033484392 0.60600001
0.036113668 -0.033526033 0.60675007
0.037607562 -0.033539645 0.60700005
-0.0057733725 -0.030038564 0.60600001
-0.0033147992 -0.031049494 0.60650003
-0.0018352832 -0.031023085 0.60600001
0.0011182837 -0.031023085 0.60600001
0.0030873283 -0.032007609 0.60600001
0.0060408954 -0.031023085 0.60600001
0.0094867237 -0.032007609 0.60600001
0.010963507 -0.032007609 0.60600001
0.013901763 -0.031972397 0.60533333
0.015859904 -0.031954788 0.60500002
0.018808596 -0.031954788 0.60500002
0.031094816 -0.031954788 0.60500002
0.033088341 -0.0319812 0.60549998
0.036068827 -0.031023085 0.60600001
0.038100637 -0.031074278 0.60700005
-0.0067523187 -0.02853862 0.60549998
-0.0037998718 -0.028530629 0.60533333
-0.0018322547 -0.028514646 0.60500002
0.0011164383 -0.028514646 0.60500002
0.0040651313 -0.029006096 0.60500002
0.0060309265 -0.028514646 0.60500002
0.0094710682 -0.029497545 0.60500002
0.010945415 -0.029497545 0.60500002
0.013648383 -0.029743271 0.60500002
0.015859904 -0.029988995 0.60500002
0.033306338 -0.029251821 0.60500002
0.036039472 -0.028538214 0.60549998
0.038085148 -0.028597331 0.60675001
-0.0077296407 -0.025074508 0.60500002
-0.0067467433 -0.025565956 0.60500002
-0.0040437742 -0.02581168 0.60500002
-0.0018322547 -0.026057405 0.60500002
0.00013354066 -0.026057405 0.60500002
0.036024388 -0.025576726 0.60525
0.038069658 -0.025875879 0.60650003
-0.0077296407 -0.024091611 0.60500002
0.036500752 -0.023600161 0.60500002
0.037894975 -0.023816532 0.60633332
-0.0087125385 -0.021142917 0.60500002
0.036500752 -0.020651467 0.60500002
0.037607562 -0.020719737 0.60700005
0.036500752 -0.019177122 0.60500002
0.037607562 -0.019240517 0.60700005
0.036520865 -0.016236829 0.60533333
0.03754561 -0.016747514 0.60600001
0.035517856 -0.014262634 0.60500002
0.033607516 -0.011331558 0.60600001
0.032569163 -0.0063994527 0.60500002
0.031638477 -0.003456464 0.60600001
0.028684909 -0.0014874194 0.60600001
0.030653954 -0.0024719415 0.60600001
0.027924068 0.0012184009 0.60550004
0.027700385 0.0034351915 0.60600001
0.026671777 0.0068696644 0.60500002
0.027700385 0.0058964971 0.60600001
0.024705984 0.0093269087 0.60500002
0.026759947 0.0093577411 0.60700005
0.024234951 0.010318327 0.60549998
0.024869328 -0.043049421 0.60900003
0.026848121 -0.043049421 0.60900003
0.028826915 -0.043049421 0.60900003
0.031795103 -0.043049421 0.60900003
0.033279195 -0.043049421 0.60900003
0.015964761 -0.041070629 0.60900003
0.019180298 -0.041317977 0.60900003
0.020911742 -0.041565329 0.60900003
0.023860326 -0.041531604 0.6085
0.026826076 -0.041531608 0.6085
0.028779579 -0.04149707 0.60800004
0.031742893 -0.041497074 0.60800004
0.033238415 -0.041514337 0.60825002
0.036217622 -0.041531608 0.6085
0.0381952 -0.041036908 0.6085
0.040699668 -0.041070629 0.60900003
0.00013420284 -0.038039874 0.60800004
0.0060708001 -0.038102441 0.60900003
0.0090389885 -0.038597137 0.60900003
0.011211718 -0.038485684 0.60880005
0.01446878 -0.038565855 0.6085
0.015951656 -0.038565855 0.6085
0.018704306 -0.038632534 0.60800004
0.020877406 -0.039027642 0.60800004
0.02384072 -0.039027642 0.60800004
0.033224553 -0.039027642 0.60800004
0.036187865 -0.038533758 0.60800004
0.038179304 -0.038549807 0.60825002
0.041194364 -0.038597137 0.60900003
0.04267846 -0.038102441 0.60900003
-0.0028314386 -0.036588687 0.6085
-0.0018428545 -0.036588687 0.6085
0.0011228602 -0.036578532 0.60833335
0.0031000646 -0.036588687 0.6085
0.0060638841 -0.036578529 0.60833335
0.0090241469 -0.036558218 0.60800004
0.010802136 -0.036656994 0.60800004
0.014456891 -0.037052102 0.60800004
0.038163409 -0.036558218 0.60800004
0.041143835 -0.036573451 0.60825002
0.04333806 -0.036453445 0.60900003
0.038657293 -0.033594899 0.60800004
0.041126721 -0.033594903 0.60800004
0.04366786 -0.03365016 0.60900003
0.041126721 -0.031125471 0.60800004
0.04333806 -0.031506468 0.60900003
0.041143835 -0.028667623 0.60825002
0.04267846 -0.029197875 0.60900003
0.041160952 -0.026208151 0.6085
0.038657293 -0.023223301 0.60800004
0.041007191 -0.02390782 0.60866666
0.038657293 -0.020753872 0.60800004
0.040699668 -0.020788006 0.60900003
0.038657293 -0.019272216 0.60800004
0.040699668 -0.019303912 0.60900003
0.038328037 -0.0163089 0.60800004
0.040699668 -0.01732512 0.60900003
0.036681749 -0.014333357 0.60800004
0.035723332 -0.011873279 0.6085
0.033718437 -0.0084067285 0.60800004
0.032730665 -0.0054434142 0.60800004
0.029816311 -0.0014947829 0.60900003
0.031795103 -0.0024841789 0.60900003
0.028826913 0.0019681037 0.60900003
0.028826913 0.0034521979 0.60900003
0.027791806 0.0073976149 0.60800004
0.014054866 -0.045250025 0.61200005
0.016236691 -0.045632947 0.61180001
0.01940462 -0.046000756 0.61140001
0.020749019 -0.046455488 0.61150002
0.023953997 -0.046161242 0.61088896
0.025943644 -0.046169817 0.611
0.028773014 -0.045875251 0.61085719
0.031899519 -0.045673221 0.61100006
0.032892164 -0.045176089 0.611
0.0061007058 -0.043261483 0.61200005
0.0080892462 -0.043261483 0.61200005
0.011072057 -0.043261483 0.61200005
0.0140319 -0.043190796 0.611
0.016017191 -0.043190796 0.611
0.019459549 -0.043120109 0.61000001
0.02094608 -0.043120109 0.61000001
0.023423633 -0.043120109 0.61000001
0.03482037 -0.043120109 0.61000001
-0.0013552111 -0.041736361 0.61150002
0.001625162 -0.041736361 0.61150002
0.0031153485 -0.041736361 0.61150002
0.0060957219 -0.041736361 0.61150002
0.0080760289 -0.041701831 0.611
0.011044919 -0.041668106 0.61050004
0.014510187 -0.041650843 0.61025
0.016486486 -0.042129088 0.61000001
0.018964039 -0.042129088 0.61000001
0.038320735 -0.042163618 0.61049998
0.041757517 -0.041138064 0.61000001
-0.0028384181 -0.038165003 0.61000001
-0.0015185345 -0.038868476 0.61066669
0.0016225043 -0.038692608 0.61049998
0.0031077068 -0.038660511 0.61000001
0.006080769 -0.039156023 0.61000001
0.010044852 -0.039156023 0.61000001
0.043739557 -0.038660511 0.61000001
0.045796555 -0.038227569 0.611
0.044730578 -0.037173983 0.61000001
0.046255402 -0.036708534 0.61050004
0.046255402 -0.03373304 0.61049998
0.044730578 -0.030236838 0.61000001
0.046127979 -0.031609934 0.611
0.04378736 -0.028616017 0.61066669
0.042783577 -0.026293479 0.61049998
0.041757517 -0.023299692 0.61000001
0.042818617 -0.024330534 0.611
0.041791745 -0.020838803 0.61049998
0.041825972 -0.019367307 0.611
0.042888697 -0.019399006 0.61200005
0.038784456 -0.015371528 0.61000001
0.041262008 -0.016858058 0.61000001
0.038383506 -0.014415868 0.61150002
0.036923077 -0.012439116 0.61200005
0.032892164 -0.0034849825 0.611
0.029963186 0.00048639366 0.61200005
0.028905803 0.0064390399 0.61066669
0.027883226 0.0094039906 0.61000001
0.025943644 0.010412052 0.611
0.016095838 -0.048390459 0.61400002
0.019057306 -0.048311647 0.61300004
0.021061083 -0.048337918 0.61333334
0.024075991 -0.048390459 0.61400002
0.0021305657 -0.0453979 0.61400002
0.0037908582 -0.045705762 0.61366671
0.0066140126 -0.045859694 0.6135
0.0081090722 -0.045859694 0.6135
0.011223681 -0.046233561 0.61349994
0.013092607 -0.046856396 0.6135
0.015826795 -0.047086075 0.61325002
0.029063586 -0.047392938 0.61400002
-0.00086058816 -0.043332174 0.61300004
0.0016291485 -0.043332174 0.61300004
0.0031229905 -0.043332174 0.61300004
0.0061106742 -0.043332174 0.61300004
0.047977351 -0.03688933 0.6135
0.04793825 -0.033871174 0.61300004
0.047018934 -0.030435111 0.61400002
0.045983937 -0.028914861 0.6135
0.04395467 -0.026401967 0.61300004
0.044026375 -0.024449997 0.61400002
0.042958777 -0.020426597 0.61300004
0.043028854 -0.018464882 0.61400002
0.040966988 -0.015447125 0.61300004
0.037043739 -0.011482248 0.61400002
0.034051184 -0.0054971324 0.61400002
0.032003935 -0.0015046007 0.61300004
0.030061105 0.0019842619 0.61400002
0.0021409758 -0.05063168 0.61700004
0.003807693 -0.050911102 0.61633337
0.0064774919 -0.050911102 0.61633337
0.0086499229 -0.051091846 0.61650002
0.01165426 -0.051091846 0.61650002
0.01315663 -0.051091846 0.61650002
0.016148265 -0.051050812 0.61600006
0.019119482 -0.050467558 0.61500001
0.021164095 -0.050576974 0.61633337
0.0011367372 -0.048047699 0.61600006
0.0036361113 -0.048508674 0.61550003
0.0066409642 -0.04854808 0.61600006
0.0086499229 -0.048587486 0.61650002
0.011625903 -0.048469272 0.61500001
0.013124619 -0.048469272 0.61500001
0.025114346 -0.048469272 0.61500001
-0.00086409791 -0.04600919 0.61550003
0.001468087 -0.046520274 0.61566669
0.0034662278 -0.047137078 0.61500001
0.0066301832 -0.047470126 0.61500001
0.0081288991 -0.047470126 0.61500001
0.010127188 -0.047470126 0.61500001
0.049173627 -0.036538858 0.61600006
0.049173627 -0.034036938 0.61600006
0.048172861 -0.031533394 0.61600006
0.047172092 -0.029032286 0.61600006
0.046171322 -0.026529551 0.61600006
0.044169784 -0.02352887 0.61600006
0.044241488 -0.021562282 0.61700004
0.038103215 -0.012500092 0.61500001
0.035162866 -0.0080161467 0.61600006
0.033662528 -0.0030139291 0.61600006
0.031210378 0.00049036747 0.61700004
0.030110065 0.0034862093 0.61500001
0.030134544 0.0059893401 0.61550003
0.029158255 0.0094964886 0.61600006
0.0036563794 -0.052807089 0.61900002
0.0071761278 -0.052807089 0.61900002
0.0086845914 -0.052807089 0.61900002
0.01169166 -0.052764431 0.61849999
0.013188641 -0.052721776 0.61800003
0.015724087 -0.052807089 0.61900002
0.0021444457 -0.051717758 0.61800003
0.0031484636 -0.051717758 0.61800003
0.0071645342 -0.051717758 0.61800003
0.008670561 -0.051215749 0.61800003
0.018208729 -0.051717758 0.61800003
0.00013663086 -0.046773233 0.61900002
0.049333282 -0.032641422 0.61800003
0.051424392 -0.034705527 0.61900002
0.047401823 -0.027666029 0.61900002
0.048329264 -0.029629368 0.61800003
0.044313192 -0.020593211 0.61800003
0.044313192 -0.019589193 0.61800003
0.039356682 -0.012581393 0.61900002
0.038289089 -0.01155705 0.61800003
0.035334114 -0.0065475395 0.61900002
0.03332283 -0.0015193276 0.61900002
0.031311546 0.0014975993 0.61900002
0.030256946 0.0075192866 0.61800003
0.0021531205 -0.05394394 0.62050003
0.0036656456 -0.054951213 0.62050003
0.0058513433 -0.054294456 0.62066668
0.0086986218 -0.054906934 0.62
0.011720423 -0.054906934 0.62
0.013746439 -0.054951213 0.62050003
0.017260391 -0.052892394 0.62
0.018326586 -0.053063016 0.62200004
0.020820163 -0.051968813 0.62100005
0.023341581 -0.050959926 0.62100005
0.051507469 -0.03325069 0.62
0.049492937 -0.030732524 0.62
0.048900168 -0.028763765 0.62099999
0.045537196 -0.023719853 0.62100005
0.045610525 -0.021737015 0.62200004
0.04460001 -0.018705467 0.62200004
0.036398467 -0.010587186 0.62
0.036486525 -0.0085925795 0.62150002
0.035448279 -0.005559803 0.62100005
0.03438393 -0.0025290491 0.62
0.035505362 -0.0035477239 0.62200004
0.032473814 0.00049434125 0.62200004
0.031387422 0.0030137536 0.62050003
0.031463299 0.0060521802 0.62200004
0.030452782 0.0095889866 0.62200004
0.0031790312 -0.056274936 0.62400001
0.0087473206 -0.056229845 0.62349999
0.011786993 -0.056229845 0.62349999
0.016331768 -0.055172611 0.62300003
0.050744556 -0.03088123 0.62300003
0.049732417 -0.028856948 0.62300003
0.036574584 -0.0065898499 0.62300003
0.034550302 -0.0015291456 0.62300003
0.03257823 0.0015096962 0.62400001
0.0041995156 -0.056365121 0.625
0.0062302956 -0.056365121 0.625
0.013380708 -0.056545489 0.62700003
0.017427428 -0.055438288 0.62600005
0.019461457 -0.053404257 0.62600005
0.052938245 -0.035041928 0.625
0.052980594 -0.033545252 0.62550002
0.053107645 -0.031079505 0.62700003
0.049971901 -0.027978893 0.62600005
0.050988913 -0.029503601 0.62600005
0.048876684 -0.025903417 0.625
0.046920855 -0.023910832 0.62600005
0.045830514 -0.020826466 0.625
0.036692001 -0.0055956147 0.625
0.036243014 -0.0030628433 0.62600005
0.034716677 -0.00051949441 0.62600005
0.035790775 -0.0015389636 0.62700003
0.032656543 0.0030380352 0.62550002
0.03273486 0.0055915117 0.62700003
0.031615052 0.007604456 0.625
0.030648619 0.010667668 0.62600005
0.053192347 -0.030108809 0.62800002
0.050211381 -0.026069198 0.62900001
0.047145717 -0.021981644 0.62900001
0.045101941 -0.016872201 0.62900001
0.039928913 -0.010723793 0.62800002
0.037918553 -0.0086893663 0.62849998
0.03794872 -0.0066533154 0.62900001
0.036926828 -0.0025657611 0.62900001
0.033861164 0.0015217932 0.62900001
0.032787066 0.0066206935 0.62800002
0.031766802 0.0096814856 0.62800002
0.040087868 -0.008717021 0.63050008
0.038009048 -0.0056403801 0.63000005
0.038069382 -0.0035990572 0.63100004
0.036503136 -0.0010357976 0.63050008
0.036076192 0.0015290513 0.63200003
0.033941913 0.0030623167 0.63050008
0.032891482 0.0076652914 0.63000005
0.031969141 0.010769913 0.63200003
0 0 0 1 0 0 0 1 0 0 0 1 0 0 0 0 0 670 1 0 0
