ply
format ascii 1.0
comment PCL generated
element vertex 1461
property float x
property float y
property float z
element camera 0
property float view_px
property float view_py
property float view_pz
property float x_axisx
property float x_axisy
property float x_axisz
property float y_axisx
property float y_axisy
property float y_axisz
property float z_axisx
property float z_axisy
property float z_axisz
property float focal
property float scalex
property float scaley
property float centerx
property float centery
property int viewportx
property int viewporty
property float k1
property float k2
end_header
-0.051485613 0.0062673744 1.0250001
-0.043086562 0.0090670576 1.0250001
-0.10207869 -0.027382145 1.0270001
-0.09927354 -0.027382145 1.0270001
-0.096468396 -0.021771852 1.0270001
-0.071152739 -0.021750653 1.026
-0.093572058 -0.01894824 1.026
-0.068416946 -0.018966706 1.0270001
-0.087967224 -0.016145825 1.026
-0.085330822 -0.013369421 1.028
-0.062745497 -0.013343411 1.026
-0.079637527 -0.0077461246 1.0270001
-0.057252053 -0.007753667 1.028
-0.057196364 -0.0049409787 1.0270001
-0.07402724 -0.002135833 1.0270001
-0.054391216 -0.002135833 1.0270001
-0.068483561 0.00066996418 1.028
-0.065675683 0.00066996418 1.028
-0.062867805 0.00066996418 1.028
-0.060059931 0.00066996418 1.028
-0.057140667 0.00066866074 1.026
-0.054338254 0.00066866074 1.026
-0.057140667 0.0034710749 1.026
-0.048733424 0.0034710749 1.026
-0.054338254 0.0062734894 1.026
-0.048780926 0.0062796036 1.0270001
-0.046020545 0.0062857182 1.028
-0.043212671 0.0062857182 1.028
-0.051535841 0.0090759033 1.026
-0.048733424 0.0090759033 1.026
-0.045931011 0.0090759033 1.026
-0.040365487 0.009084749 1.0270001
-0.046020545 0.011901473 1.028
-0.043128598 0.011878317 1.026
-0.040326182 0.011878317 1.026
-0.043170631 0.014695041 1.0270001
-0.040365487 0.014695041 1.0270001
-0.037523769 0.014680731 1.026
-0.034789041 0.01470935 1.028
-0.037596915 0.017517228 1.028
-0.034755196 0.017500186 1.0270001
-0.031981163 0.017517228 1.028
-0.071360789 -0.02462486 1.029
-0.065739572 -0.016193036 1.029
-0.060118355 -0.010571818 1.029
-0.071360789 0.00067061593 1.029
-0.051686529 0.00067061593 1.029
-0.082603224 0.0034812244 1.029
-0.046065312 0.0034812244 1.029
-0.057307746 0.0062918332 1.029
-0.054497138 0.0091024414 1.029
-0.03763349 0.011913049 1.029
-0.046065312 0.014723658 1.029
-0.040444098 0.017534265 1.029
-0.032012273 0.020344874 1.029
-0.020769838 0.028776702 1.029
-0.0967502 -0.02746213 1.0300001
-0.10237688 -0.024648791 1.0300001
-0.077056818 -0.0049554119 1.0300001
-0.077131629 -0.0021441518 1.031
-0.051736757 -0.0021420722 1.0300001
-0.074243478 0.00067126763 1.0300001
-0.074243478 0.0034846074 1.0300001
-0.071499489 0.0034879905 1.031
-0.063051276 0.0034879905 1.031
-0.060176779 0.0034846074 1.0300001
-0.043338776 0.0034879905 1.031
-0.082763776 0.0063040615 1.031
-0.040522706 0.0063040615 1.031
-0.051786989 0.011936205 1.031
-0.048923418 0.011924627 1.0300001
-0.043296739 0.017551307 1.0300001
-0.034856722 0.020364646 1.0300001
-0.029258419 0.020384418 1.031
-0.032043383 0.023177987 1.0300001
-0.029230041 0.023177987 1.0300001
-0.026442349 0.023200488 1.031
-0.029258419 0.026016559 1.031
-0.026442349 0.026016559 1.031
-0.026442349 0.028832631 1.031
-0.023603361 0.028804665 1.0300001
-0.023626277 0.031648703 1.031
-0.020810205 0.031648703 1.031
-0.020810205 0.034464773 1.031
-0.017994134 0.034464773 1.031
-0.10539447 -0.027515454 1.0320001
-0.094119258 -0.027515454 1.0320001
-0.091388926 -0.027542118 1.033
-0.068816654 -0.02189905 1.033
-0.06029363 -0.013421442 1.0320001
-0.054656025 -0.0049650343 1.0320001
-0.082844049 0.00067257107 1.0320001
-0.077281252 0.00067322276 1.033
-0.04901842 0.00067257107 1.0320001
-0.077281252 0.003494757 1.033
-0.068750039 0.0034913737 1.0320001
-0.065931238 0.0034913737 1.0320001
-0.057530515 0.0091378251 1.033
-0.037779778 0.0091378251 1.033
-0.04901842 0.014766584 1.0320001
-0.032105599 0.014766584 1.0320001
-0.046199616 0.017585386 1.0320001
-0.029286798 0.017585386 1.0320001
-0.037743207 0.02040419 1.0320001
-0.034924403 0.023222992 1.0320001
-0.023672108 0.023245495 1.033
-0.032105599 0.026041796 1.0320001
-0.023649193 0.026041796 1.0320001
-0.032136708 0.028888563 1.033
-0.029286798 0.028860599 1.0320001
-0.018011587 0.028860599 1.0320001
-0.018011587 0.031679399 1.0320001
-0.023649193 0.034498204 1.0320001
-0.015207508 0.034531631 1.033
-0.012385973 0.034531631 1.033
-0.0095551796 0.040135808 1.0320001
-0.0067363773 0.040135808 1.0320001
-0.0095644388 0.042996235 1.033
-0.0067429054 0.042996235 1.033
-0.0095644388 0.045817766 1.033
-0.0067363773 0.045773413 1.0320001
-0.003921371 0.045817766 1.033
0.0017216973 0.051460832 1.033
0.0045432313 0.051460832 1.033
0.0073647648 0.051460832 1.033
-0.088653132 -0.02756878 1.034
-0.10004686 -0.021941449 1.0350001
-0.066059008 -0.019095983 1.034
-0.091477394 -0.016271718 1.034
-0.063234739 -0.016271718 1.034
-0.057586212 -0.010623188 1.034
-0.054761946 -0.0077989218 1.034
-0.080180332 -0.0049746563 1.034
-0.083084874 -0.0021524706 1.0350001
-0.080180332 -0.002150391 1.034
-0.085828863 0.0034981398 1.034
-0.080180332 0.0034981398 1.034
-0.08591187 0.0063285194 1.0350001
-0.060410477 0.0063224053 1.034
-0.054761946 0.011970936 1.034
-0.034992088 0.011970936 1.034
-0.049160909 0.017636508 1.0350001
-0.046333913 0.020463504 1.0350001
-0.04350692 0.020463504 1.0350001
-0.040640619 0.020443734 1.034
-0.026519291 0.020443734 1.034
-0.037816353 0.023267997 1.034
-0.034992088 0.026092263 1.034
-0.02087076 0.026092263 1.034
-0.034992088 0.028916528 1.034
-0.01523695 0.028944496 1.0350001
-0.029343557 0.031740792 1.034
-0.026519291 0.031740792 1.034
-0.015222228 0.031740792 1.034
-0.029371936 0.034598488 1.0350001
-0.026544938 0.034598488 1.0350001
-0.009573698 0.034565058 1.034
-0.020890944 0.037425485 1.0350001
-0.018063948 0.037425485 1.0350001
-0.01523695 0.037425485 1.0350001
-0.012397964 0.037389323 1.034
-0.009573698 0.037389323 1.034
-0.01523695 0.040252484 1.0350001
-0.012409953 0.040252484 1.0350001
-0.0039289631 0.040252484 1.0350001
-0.012409953 0.043079481 1.0350001
-0.0039289631 0.043079481 1.0350001
-0.012409953 0.045906477 1.0350001
-0.0011019662 0.045906477 1.0350001
0.0017250305 0.045906477 1.0350001
-0.0039289631 0.048733473 1.0350001
-0.0011019662 0.048733473 1.0350001
0.0017233639 0.048686389 1.034
-0.0039289631 0.051560469 1.0350001
-0.0011009015 0.051510654 1.034
0.0045520272 0.054387465 1.0350001
0.0045520272 0.057214465 1.0350001
0.0073790243 0.057214465 1.0350001
0.010206021 0.057214465 1.0350001
-0.086077884 -0.027648767 1.0370001
-0.069083132 -0.024816308 1.0370001
-0.097313784 -0.01913292 1.036
-0.083165146 -0.010643735 1.036
-0.052088372 -0.0049890894 1.0370001
-0.04920841 -0.0021545503 1.036
-0.086077884 0.00067582965 1.0370001
-0.080335423 0.0006751779 1.036
-0.046423454 0.00067582965 1.0370001
-0.040719226 0.0035049063 1.036
-0.063357055 0.0063346345 1.036
-0.052038141 0.01482382 1.036
-0.029428693 0.014838128 1.0370001
-0.026596231 0.017670589 1.0370001
-0.023763772 0.020503048 1.0370001
-0.046378683 0.023313005 1.036
-0.043548953 0.023313005 1.036
-0.040719226 0.023313005 1.036
-0.020911129 0.023313005 1.036
-0.040758532 0.026167966 1.0370001
-0.037889499 0.026142731 1.036
-0.018098854 0.026167966 1.0370001
-0.03792607 0.029000426 1.0370001
-0.032230042 0.031802189 1.036
-0.012421944 0.031802189 1.036
-0.032261152 0.034665346 1.0370001
-0.023763772 0.037497804 1.0370001
-0.0067624878 0.037461646 1.036
-0.020911129 0.040291373 1.036
-0.018081401 0.040291373 1.036
-0.015266393 0.043162722 1.0370001
-0.015266393 0.045995183 1.0370001
0.0045608236 0.045995183 1.0370001
-0.0067624878 0.048780557 1.036
0.0045564254 0.048780557 1.036
-0.006769015 0.051660102 1.0370001
0.010215881 0.051610287 1.036
-0.0011040957 0.054492563 1.0370001
0.001728364 0.054492563 1.0370001
0.0073861536 0.054440014 1.036
0.010215881 0.054440014 1.036
0.001728364 0.05732502 1.0370001
0.013058202 0.05732502 1.0370001
0.01304561 0.062929198 1.036
0.015890662 0.062989943 1.0370001
0.015890662 0.068654858 1.0370001
-0.15704067 -0.070203297 1.0380001
-0.10610936 -0.030540014 1.039
-0.089081824 -0.013512479 1.039
-0.057864673 -0.013512479 1.039
-0.080490507 0.0063468632 1.0380001
-0.074820124 0.0063468632 1.0380001
-0.071984932 0.0063468632 1.0380001
-0.069216363 0.0063529783 1.039
-0.066314556 0.0063468632 1.0380001
-0.037999216 0.0063529783 1.039
-0.083325699 0.0091820545 1.0380001
-0.060644172 0.0091820545 1.0380001
-0.05780898 0.012017245 1.0380001
-0.032323372 0.012028823 1.039
-0.052188829 0.017704668 1.039
-0.049303409 0.020522818 1.0380001
-0.049303409 0.02335801 1.0380001
-0.018133759 0.023380512 1.039
-0.046468217 0.026193202 1.0380001
-0.043633025 0.026193202 1.0380001
-0.043633025 0.029028393 1.0380001
-0.040797833 0.029028393 1.0380001
-0.012457916 0.029056357 1.039
-0.035127454 0.031863585 1.0380001
-0.0096199922 0.031894282 1.039
-0.035161294 0.034732204 1.039
-0.0067755426 0.034698773 1.0380001
-0.023809604 0.040408049 1.039
-0.0011062251 0.040408049 1.039
-0.0011051603 0.043204349 1.0380001
-0.0096107339 0.048874728 1.0380001
0.0074004126 0.048874728 1.0380001
0.013083386 0.054597657 1.039
-0.0011051603 0.0573803 1.0380001
0.01592131 0.05743558 1.039
0.010245465 0.060273502 1.039
0.013070796 0.060215492 1.0380001
0.015905986 0.060215492 1.0380001
-0.0067820698 0.063111424 1.039
-0.0039441474 0.063111424 1.039
-0.0011062251 0.063111424 1.039
0.010245465 0.063111424 1.039
0.018741177 0.06305068 1.0380001
0.013083386 0.065949343 1.039
0.015905986 0.065885872 1.0380001
0.018741177 0.065885872 1.0380001
0.013083386 0.068787269 1.039
0.018759232 0.068787269 1.039
0.021597154 0.068787269 1.039
0.021597154 0.074463114 1.039
0.024411559 0.074391447 1.0380001
0.027272999 0.074463114 1.039
0.024435077 0.077301033 1.039
0.024411559 0.080061831 1.0380001
-0.16018391 -0.070338562 1.0400001
-0.1545026 -0.070338562 1.0400001
-0.15749453 -0.067562811 1.041
-0.15749453 -0.064719424 1.041
-0.10915699 -0.030598801 1.041
-0.10337083 -0.030569408 1.0400001
-0.083486252 -0.027728753 1.0400001
-0.063662827 -0.01922526 1.041
-0.060819443 -0.016381875 1.041
-0.05507971 -0.01068483 1.0400001
-0.052289288 -0.0078517189 1.041
-0.086326905 -0.0021628691 1.0400001
-0.046557751 -0.0021628691 1.0400001
-0.043759134 0.00067843648 1.041
-0.077804938 0.0063590924 1.0400001
-0.086326905 0.009199746 1.0400001
-0.066506214 0.0092085917 1.041
-0.063601673 0.009199746 1.0400001
-0.035195135 0.009199746 1.0400001
-0.05507971 0.014881053 1.0400001
-0.052289288 0.020582132 1.041
-0.052289288 0.023425519 1.041
-0.049445905 0.026268905 1.041
-0.015310558 0.026243668 1.0400001
-0.046557751 0.029084323 1.0400001
-0.038072363 0.031955674 1.041
-0.032385591 0.037642445 1.041
-0.029513827 0.037606284 1.0400001
-0.026673174 0.037606284 1.0400001
-0.0039517395 0.037642445 1.041
-0.026698822 0.040485829 1.041
-0.021012051 0.043329217 1.041
-0.018151212 0.04328759 1.0400001
0.0017333641 0.04328759 1.0400001
-0.018151212 0.046128247 1.0400001
0.0074146716 0.046128247 1.0400001
-0.01532528 0.049015988 1.041
-0.012469905 0.0489689 1.0400001
-0.0096292514 0.051809557 1.0400001
0.013108572 0.051859371 1.041
-0.0039479434 0.05465021 1.0400001
-0.0039479434 0.057490863 1.0400001
-0.0039517395 0.060389526 1.041
-0.0011072898 0.060331516 1.0400001
0.0017350308 0.060389526 1.041
0.0045740181 0.060331516 1.0400001
0.0074218009 0.060389526 1.041
0.018795343 0.060389526 1.041
0.0017333641 0.063172169 1.0400001
0.0045740181 0.063172169 1.0400001
0.0074146716 0.063172169 1.0400001
0.021638727 0.063232914 1.041
0.021638727 0.066076301 1.041
0.024482112 0.068919681 1.041
0.015936634 0.071694136 1.0400001
0.018777287 0.071694136 1.0400001
0.021617942 0.071694136 1.0400001
0.024482112 0.071763068 1.041
0.018795343 0.074606456 1.041
0.030168882 0.074606456 1.041
0.021638727 0.077449836 1.041
0.027325496 0.077449836 1.041
0.030168882 0.077449836 1.041
0.021638727 0.080293223 1.041
0.02729925 0.080216095 1.0400001
0.030139903 0.080216095 1.0400001
0.033012267 0.080293223 1.041
0.035855651 0.080293223 1.041
0.038699038 0.085979991 1.041
-0.16634367 -0.081936851 1.0430001
-0.16349483 -0.076239154 1.0430001
-0.16064598 -0.076239154 1.0430001
-0.16049194 -0.073319942 1.0420001
-0.15764584 -0.073319942 1.0420001
-0.16049194 -0.067627713 1.0420001
-0.15479971 -0.067627713 1.0420001
-0.16049194 -0.064781591 1.0420001
-0.10082016 -0.030657589 1.0430001
-0.10936671 -0.027808741 1.0430001
-0.080800682 -0.027782077 1.0420001
-0.10641573 -0.024935961 1.0420001
-0.066633984 -0.022111045 1.0430001
-0.086492918 -0.010705378 1.0420001
-0.083646797 -0.005013145 1.0420001
-0.038108937 0.0035252047 1.0420001
-0.080800682 0.0092174383 1.0420001
-0.069482833 0.009226284 1.0430001
-0.060877867 0.012063554 1.0420001
-0.058031749 0.014909672 1.0420001
-0.060936291 0.017772827 1.0430001
-0.058031749 0.017755788 1.0420001
-0.055185631 0.017755788 1.0420001
-0.023878353 0.017755788 1.0420001
-0.069482833 0.020621676 1.0430001
-0.021032237 0.020601904 1.0420001
-0.066633984 0.023470523 1.0430001
-0.063723981 0.023448022 1.0420001
-0.060936291 0.023470523 1.0430001
-0.015354724 0.023470523 1.0430001
-0.060936291 0.02916822 1.0430001
-0.058087446 0.02916822 1.0430001
-0.0495409 0.02916822 1.0430001
-0.040994357 0.032017067 1.0430001
-0.055238597 0.034865916 1.0430001
-0.052389748 0.034865916 1.0430001
-0.049493399 0.034832489 1.0420001
-0.046692051 0.034865916 1.0430001
-0.038145509 0.034865916 1.0430001
-0.049493399 0.037678603 1.0420001
-0.046692051 0.037714764 1.0430001
-0.035262819 0.037678603 1.0420001
-0.0495409 0.040563613 1.0430001
-0.046647284 0.040524721 1.0420001
-0.04380117 0.040524721 1.0420001
-0.040955052 0.040524721 1.0420001
-0.038145509 0.040563613 1.0430001
-0.035262819 0.040524721 1.0420001
-0.032416701 0.040524721 1.0420001
-0.029570585 0.040524721 1.0420001
-0.038145509 0.046261307 1.0430001
-0.021032237 0.046216954 1.0420001
-0.02105242 0.049110156 1.0430001
-0.018186118 0.049063072 1.0420001
0.010275047 0.049063072 1.0420001
-0.02105242 0.051959004 1.0430001
-0.018203571 0.051959004 1.0430001
-0.015340003 0.051909186 1.0420001
-0.012505876 0.051959004 1.0430001
-0.023901269 0.057656698 1.0430001
-0.018203571 0.057656698 1.0430001
-0.015340003 0.057601422 1.0420001
-0.0068016523 0.057601422 1.0420001
-0.0068016523 0.060447536 1.0420001
-0.0096477689 0.063293651 1.0420001
-0.0011104839 0.066203244 1.0430001
0.010284908 0.066203244 1.0430001
0.001738364 0.069052093 1.0430001
0.0045872121 0.069052093 1.0430001
0.010284908 0.069052093 1.0430001
0.027351746 0.068985887 1.0420001
0.013121163 0.071832001 1.0420001
0.027351746 0.071832001 1.0420001
0.010284908 0.07474979 1.0430001
0.013121163 0.074678123 1.0420001
0.01596728 0.074678123 1.0420001
0.018831452 0.077598639 1.0430001
0.033075694 0.077598639 1.0430001
0.038773388 0.08044748 1.0430001
0.024529148 0.083296329 1.0430001
0.030226843 0.083296329 1.0430001
0.033075694 0.083296329 1.0430001
0.035890095 0.083216473 1.0420001
0.038736213 0.083216473 1.0420001
0.033075694 0.086145177 1.0430001
0.035890095 0.086062588 1.0420001
0.041622236 0.086145177 1.0430001
-0.16935474 -0.08201541 1.044
-0.16380833 -0.082093969 1.0450001
-0.16951695 -0.079239659 1.0450001
-0.16666265 -0.079239659 1.0450001
-0.16380833 -0.079239659 1.0450001
-0.16935474 -0.076312251 1.044
-0.16650316 -0.076312251 1.044
-0.16380833 -0.073531039 1.0450001
-0.16380833 -0.070676729 1.0450001
-0.15509684 -0.064905934 1.044
-0.15794842 -0.062054358 1.044
-0.095213674 -0.016429085 1.044
-0.055344518 -0.01359051 1.0450001
-0.049588401 -0.0050227675 1.044
-0.089510515 0.0035319708 1.044
-0.089510515 0.0063835504 1.044
-0.072470382 0.0092439763 1.0450001
-0.066761762 0.012098287 1.0450001
-0.063846298 0.012086709 1.044
-0.029627342 0.012086709 1.044
-0.063907452 0.014952598 1.0450001
-0.060994718 0.014938288 1.044
-0.026801409 0.014952598 1.0450001
-0.072401039 0.017789869 1.044
-0.069549456 0.017789869 1.044
-0.066697881 0.017789869 1.044
-0.063846298 0.017789869 1.044
-0.072470382 0.02066122 1.0450001
-0.066697881 0.020641448 1.044
-0.063846298 0.020641448 1.044
-0.060994718 0.020641448 1.044
-0.058143139 0.020641448 1.044
-0.055344518 0.02066122 1.0450001
-0.069549456 0.023493027 1.044
-0.058143139 0.023493027 1.044
-0.05529156 0.023493027 1.044
-0.063846298 0.026344607 1.044
-0.060994718 0.026344607 1.044
-0.058198828 0.026369842 1.0450001
-0.05243998 0.026344607 1.044
-0.012529857 0.026369842 1.0450001
-0.063907452 0.029224152 1.0450001
-0.05529156 0.029196186 1.044
-0.05243998 0.029196186 1.044
-0.0096755456 0.029224152 1.0450001
-0.058198828 0.032078464 1.0450001
-0.05529156 0.032047767 1.044
-0.049635895 0.032078464 1.0450001
-0.043927275 0.032078464 1.0450001
-0.0068147071 0.032047767 1.044
-0.058198828 0.034932774 1.0450001
-0.043885238 0.034899347 1.044
-0.041072965 0.034932774 1.0450001
-0.0039631282 0.034899347 1.044
-0.05243998 0.037750926 1.044
-0.043885238 0.037750926 1.044
-0.041072965 0.037787084 1.0450001
-0.038218655 0.037787084 1.0450001
-0.0011126132 0.037787084 1.0450001
0.0017400308 0.040602505 1.044
-0.043927275 0.043495707 1.0450001
-0.041033659 0.043454085 1.044
-0.03818208 0.043454085 1.044
-0.0353305 0.043454085 1.044
-0.023924183 0.043454085 1.044
0.0045916103 0.043454085 1.044
-0.041033659 0.04630566 1.044
-0.0353305 0.04630566 1.044
-0.026801409 0.046350013 1.0450001
-0.023924183 0.04630566 1.044
-0.035364341 0.049204323 1.0450001
-0.023947099 0.049204323 1.0450001
-0.032510031 0.052058637 1.0450001
-0.023947099 0.052058637 1.0450001
-0.026801409 0.054912947 1.0450001
-0.023924183 0.054860398 1.044
-0.021072604 0.054860398 1.044
-0.018238479 0.054912947 1.0450001
-0.015369445 0.054860398 1.044
-0.0068147071 0.054860398 1.044
0.015997928 0.054860398 1.044
-0.026775762 0.057711978 1.044
-0.021072604 0.057711978 1.044
-0.012517866 0.057711978 1.044
-0.0096662864 0.057711978 1.044
0.018849507 0.057711978 1.044
-0.018238479 0.060621567 1.0450001
-0.015369445 0.060563557 1.044
-0.012529857 0.060621567 1.0450001
-0.0096662864 0.060563557 1.044
0.021721873 0.060621567 1.0450001
-0.015384167 0.063475877 1.0450001
-0.012517866 0.06341514 1.044
0.024552666 0.06341514 1.044
-0.0068147071 0.066266716 1.044
-0.0039631282 0.066266716 1.044
0.0017400308 0.066266716 1.044
0.0045960085 0.066330187 1.0450001
0.0074503194 0.066330187 1.0450001
0.024552666 0.066266716 1.044
-0.0011115486 0.069118299 1.044
0.0074431901 0.069118299 1.044
0.01030463 0.072038814 1.0450001
0.030284807 0.072038814 1.0450001
0.0074431901 0.074821457 1.044
0.033107404 0.074821457 1.044
0.035958983 0.077673033 1.044
0.018867562 0.080601744 1.0450001
0.041702051 0.080601744 1.0450001
0.027404245 0.083376192 1.044
0.041702051 0.083456054 1.0450001
0.030284807 0.086310364 1.0450001
0.044556361 0.086310364 1.0450001
0.038847737 0.089164674 1.0450001
0.041702051 0.089164674 1.0450001
0.041702051 0.092018992 1.0450001
0.044556361 0.092018992 1.0450001
0.047410671 0.092018992 1.0450001
0.050264981 0.092018992 1.0450001
0.050264981 0.094873302 1.0450001
0.053119294 0.094873302 1.0450001
0.055973604 0.097727612 1.0450001
0.058827914 0.10343623 1.0450001
0.061623197 0.10333725 1.044
-0.16984138 -0.087970637 1.0470001
-0.16967916 -0.085029572 1.046
-0.16698161 -0.085110858 1.0470001
-0.17253621 -0.082172528 1.046
-0.17270115 -0.079391316 1.0470001
-0.17253621 -0.076458439 1.046
-0.158251 -0.076458439 1.046
-0.16967916 -0.073601402 1.046
-0.16682212 -0.073601402 1.046
-0.15539396 -0.073601402 1.046
-0.16984138 -0.070811994 1.0470001
-0.16682212 -0.070744358 1.046
-0.15554252 -0.062232669 1.0470001
-0.158251 -0.059316188 1.046
-0.15554252 -0.059372898 1.0470001
-0.11264591 -0.030775161 1.0470001
-0.10406659 -0.022195842 1.0470001
-0.13253762 -0.019317601 1.046
-0.12980455 -0.019336069 1.0470001
-0.061111566 -0.019317601 1.046
-0.12980455 -0.013616521 1.0470001
-0.12694478 -0.013616521 1.0470001
-0.10111015 -0.0078894319 1.046
-0.098253109 -0.0078894319 1.046
-0.084048174 -0.0078969738 1.0470001
-0.098347045 -0.0050372006 1.0470001
-0.086907946 -0.0050372006 1.0470001
-0.098347045 -0.0021774268 1.0470001
-0.089767724 -0.0021774268 1.0470001
-0.043969311 -0.0021753469 1.046
-0.041112266 0.00068169506 1.046
-0.035432026 0.0064018937 1.0470001
-0.078328632 0.0092616677 1.0470001
-0.032572255 0.0092616677 1.0470001
-0.072609082 0.014981215 1.0470001
-0.069749311 0.014981215 1.0470001
-0.066825651 0.014966905 1.046
-0.075396776 0.017823948 1.046
-0.018255932 0.02068099 1.046
-0.066889532 0.02642031 1.0470001
-0.055397481 0.026395075 1.046
-0.061111566 0.03210916 1.046
-0.05254044 0.03210916 1.046
-0.046826355 0.03210916 1.046
-0.05254044 0.040680286 1.046
-0.046871118 0.043578953 1.0470001
-0.032541141 0.043537326 1.046
-0.029684098 0.043537326 1.046
-0.026827056 0.043537326 1.046
-0.044011347 0.046438724 1.0470001
-0.032541141 0.046394374 1.046
-0.029684098 0.046394374 1.046
0.010324352 0.046438724 1.0470001
-0.041151576 0.049298499 1.0470001
-0.038255226 0.049251415 1.046
-0.032572255 0.049298499 1.0470001
-0.038291801 0.052158274 1.0470001
-0.035398182 0.052108455 1.046
-0.029684098 0.052108455 1.046
-0.026827056 0.052108455 1.046
-0.012541847 0.0549655 1.046
-0.0096848048 0.0549655 1.046
-0.029684098 0.05782254 1.046
-0.021133158 0.060737595 1.0470001
-0.018255932 0.063536629 1.046
-0.012553837 0.066457137 1.0470001
-0.0096848048 0.066393666 1.046
0.027456746 0.066393666 1.046
-0.0068277624 0.06925071 1.046
-0.0039707203 0.06925071 1.046
0.030313788 0.06925071 1.046
0.0046004062 0.072107755 1.046
0.0074574486 0.072107755 1.046
0.0046004062 0.074964792 1.046
0.036027871 0.074964792 1.046
0.010314491 0.077821836 1.046
0.013171533 0.077821836 1.046
0.016028576 0.077821836 1.046
0.038922086 0.077896237 1.0470001
0.021742659 0.083535925 1.046
0.024623219 0.086475559 1.0470001
0.027456746 0.086392961 1.046
0.036027871 0.089250006 1.046
0.044598997 0.089250006 1.046
0.047501411 0.08933533 1.0470001
0.038884915 0.09210705 1.046
0.053170122 0.09210705 1.046
0.044598997 0.094964087 1.046
0.047456037 0.094964087 1.046
0.056080732 0.09505488 1.0470001
0.050313082 0.097821131 1.046
0.053170122 0.097821131 1.046
0.058940504 0.097914651 1.0470001
0.056080732 0.10077442 1.0470001
0.061800279 0.10077442 1.0470001
0.056080732 0.1036342 1.0470001
0.064598292 0.10353522 1.046
0.061741248 0.10639226 1.046
0.12745322 0.14924788 1.046
0.13329461 0.15511012 1.0470001
-0.17286611 -0.088054657 1.0480001
-0.16714109 -0.088054657 1.0480001
-0.1642786 -0.088054657 1.0480001
-0.16141608 -0.088054657 1.0480001
-0.15870488 -0.088138677 1.049
-0.15583964 -0.088138677 1.049
-0.17286611 -0.085192151 1.0480001
-0.16443536 -0.085273445 1.049
-0.1758963 -0.082408205 1.049
-0.16157012 -0.082408205 1.049
-0.16141608 -0.07946714 1.0480001
-0.17286611 -0.073742129 1.0480001
-0.1642786 -0.068017118 1.0480001
-0.1642786 -0.06515462 1.0480001
-0.16141608 -0.06229211 1.0480001
-0.098534912 -0.03083395 1.049
-0.078478254 -0.027968714 1.049
-0.075613014 -0.027968714 1.049
-0.067017309 -0.025103478 1.049
-0.13565354 -0.019354535 1.0480001
-0.13291775 -0.016507769 1.049
-0.12992853 -0.016492032 1.0480001
-0.058365908 -0.016492032 1.0480001
-0.12706603 -0.010767021 1.0480001
-0.052640896 -0.010767021 1.0480001
-0.12706603 -0.0079045165 1.0480001
-0.12420353 -0.0079045165 1.0480001
-0.10426538 -0.0079120584 1.049
-0.095669679 -0.0079120584 1.049
-0.049778394 -0.0079045165 1.0480001
-0.10140015 -0.0050468226 1.049
-0.046960652 -0.0050468226 1.049
-0.095669679 -0.0021815861 1.049
-0.089853466 0.00068299851 1.0480001
-0.089853466 0.0092705134 1.0480001
-0.075540937 0.0092705134 1.0480001
-0.081343487 0.012144595 1.049
-0.069815926 0.012133019 1.0480001
-0.078478254 0.015009832 1.049
-0.075540937 0.014995524 1.0480001
-0.078478254 0.017875068 1.049
-0.021153344 0.017858028 1.0480001
-0.075613014 0.020740304 1.049
-0.072678432 0.02358304 1.0480001
-0.069882542 0.026470777 1.049
-0.067017309 0.029336013 1.049
-0.061228413 0.035033058 1.0480001
-0.055503402 0.037895564 1.0480001
0.0046136007 0.040796958 1.049
0.0074788369 0.043662194 1.049
-0.029740859 0.049345583 1.0480001
-0.026878353 0.049345583 1.0480001
0.013209309 0.049392667 1.049
0.016074546 0.052257907 1.049
-0.029740859 0.055070594 1.0480001
0.021805018 0.057988379 1.049
-0.026904 0.060853615 1.049
-0.024015848 0.060795605 1.0480001
-0.021153344 0.063658111 1.0480001
0.027509242 0.063658111 1.0480001
-0.015443054 0.066584088 1.049
-0.015443054 0.06944932 1.049
-0.012565828 0.069383122 1.0480001
-0.0097033223 0.069383122 1.0480001
-0.0068473453 0.07231456 1.049
-0.0039821086 0.07231456 1.049
-0.0011168721 0.07231456 1.049
0.0017483644 0.07231456 1.049
0.033234254 0.07224562 1.0480001
0.0074717076 0.077970631 1.0480001
0.0074788369 0.080910265 1.049
0.010344073 0.080910265 1.049
0.013196717 0.080833137 1.0480001
0.016059222 0.080833137 1.0480001
0.044726908 0.080910265 1.049
0.044684272 0.083695643 1.0480001
0.047546778 0.086558148 1.0480001
0.033234254 0.089420654 1.0480001
0.050409283 0.089420654 1.0480001
0.036096755 0.092283159 1.0480001
0.056187857 0.092371218 1.049
0.041821767 0.095145665 1.0480001
0.044684272 0.098008171 1.0480001
0.047592148 0.09810169 1.049
0.061918329 0.09810169 1.049
0.050457384 0.10096692 1.049
0.058996797 0.10087068 1.0480001
0.064783566 0.10096692 1.049
0.067648806 0.10383216 1.049
0.059053093 0.1066974 1.049
0.064721808 0.10659568 1.0480001
0.061859302 0.10945819 1.0480001
0.064783566 0.10956264 1.049
0.067648806 0.10956264 1.049
0.070514038 0.10956264 1.049
0.073379278 0.10956264 1.049
0.073379278 0.11529311 1.049
0.084840223 0.12102358 1.049
0.12781876 0.14681071 1.049
0.12483441 0.14953326 1.0480001
0.130684 0.14967594 1.049
0.13055941 0.15525827 1.0480001
0.13628443 0.15525827 1.0480001
-0.18197304 -0.09404812 1.051
-0.17910235 -0.09404812 1.051
-0.17623165 -0.09404812 1.051
-0.16187815 -0.09404812 1.051
-0.17623165 -0.091177426 1.051
-0.17336094 -0.091177426 1.051
-0.16172414 -0.091090672 1.0500001
-0.15900746 -0.091177426 1.051
-0.18197304 -0.088306725 1.051
-0.17910235 -0.088306725 1.051
-0.17606398 -0.088222697 1.0500001
-0.15312023 -0.088222697 1.0500001
-0.17606398 -0.08535473 1.0500001
-0.16187815 -0.085436024 1.051
-0.17910235 -0.082565323 1.051
-0.17606398 -0.079618797 1.0500001
-0.17606398 -0.07675083 1.0500001
-0.17336094 -0.071082525 1.051
-0.16761956 -0.068211831 1.051
-0.16187815 -0.059599731 1.051
-0.1559882 -0.056675054 1.0500001
-0.13591243 -0.02225944 1.0500001
-0.13304447 -0.02225944 1.0500001
-0.13030046 -0.022280639 1.051
-0.064274386 -0.022280639 1.051
-0.12742977 -0.01940994 1.051
-0.12168837 -0.01940994 1.051
-0.11870462 -0.019391473 1.0500001
-0.11594696 -0.01940994 1.051
-0.10159347 -0.01940994 1.051
-0.12742977 -0.01653924 1.051
-0.11583665 -0.016523505 1.0500001
-0.11307627 -0.01653924 1.051
-0.12455907 -0.013668542 1.051
-0.11296868 -0.013655537 1.0500001
-0.11020557 -0.013668542 1.051
-0.092892915 -0.013655537 1.0500001
-0.13030046 -0.010797843 1.051
-0.12455907 -0.010797843 1.051
-0.10446417 -0.010797843 1.051
-0.10149682 -0.010787569 1.0500001
-0.12444056 -0.0050516338 1.0500001
-0.095760882 -0.0050516338 1.0500001
-0.10149682 -0.002183666 1.0500001
-0.092981376 0.0035556529 1.051
-0.035567392 0.0035556529 1.051
-0.078553066 0.012156173 1.0500001
-0.072817132 0.012156173 1.0500001
-0.024084594 0.01503845 1.051
-0.012601797 0.023650547 1.051
-0.0068604001 0.029391946 1.051
-0.064213231 0.032231949 1.0500001
-0.0011179368 0.035099916 1.0500001
-0.058532987 0.038004044 1.051
0.0017516976 0.038004044 1.051
-0.055609323 0.040835854 1.0500001
-0.049873389 0.043703821 1.0500001
-0.047050189 0.046616137 1.051
-0.044137452 0.049439754 1.0500001
-0.04130879 0.052357536 1.051
-0.035567392 0.055228237 1.051
-0.032665581 0.055175688 1.0500001
0.018975893 0.055228237 1.051
-0.032665581 0.058043655 1.0500001
-0.029825993 0.060969636 1.051
0.024717292 0.060969636 1.051
-0.024084594 0.063840337 1.051
-0.018343195 0.066711031 1.051
0.03042971 0.066647559 1.0500001
0.033297677 0.069515526 1.0500001
0.036200088 0.072452433 1.051
-0.006853872 0.07525146 1.0500001
-0.0039859046 0.07525146 1.0500001
-0.0011179368 0.07525146 1.0500001
0.001750031 0.07525146 1.0500001
0.039033614 0.07525146 1.0500001
0.004622397 0.078193828 1.051
0.041941486 0.078193828 1.051
0.018957838 0.083855368 1.0500001
0.021825805 0.086723335 1.0500001
0.050553583 0.086805925 1.051
0.027587991 0.089676626 1.051
0.03042971 0.089591302 1.0500001
0.053373452 0.089591302 1.0500001
0.03332939 0.092547327 1.051
0.039033614 0.095327236 1.0500001
0.059109386 0.095327236 1.0500001
0.041901581 0.098195203 1.0500001
0.064907081 0.098288722 1.051
0.053373452 0.10106318 1.0500001
0.056294981 0.10690082 1.051
0.06771329 0.10679911 1.0500001
0.059109386 0.10966708 1.0500001
0.070648476 0.11264222 1.051
0.073449224 0.11253504 1.0500001
0.070648476 0.11551292 1.051
0.076317191 0.11540301 1.0500001
0.085001975 0.11551292 1.051
0.085001975 0.11838362 1.051
0.082131274 0.12125432 1.051
0.087872669 0.12125432 1.051
0.12806247 0.14421991 1.051
0.12507264 0.14695066 1.0500001
0.13093317 0.14709061 1.051
0.13367654 0.14981863 1.0500001
0.12794061 0.1526866 1.0500001
0.13080858 0.1526866 1.0500001
0.13380386 0.152832 1.051
0.12806247 0.15570271 1.051
-0.17944318 -0.10573174 1.0530001
-0.19363992 -0.099884465 1.052
-0.19076648 -0.099884465 1.052
-0.18789305 -0.099884465 1.052
-0.18519551 -0.099979416 1.0530001
-0.17944318 -0.099979416 1.0530001
-0.19094783 -0.097103253 1.0530001
-0.19094783 -0.09422709 1.0530001
-0.18789305 -0.094137609 1.052
-0.18501963 -0.094137609 1.052
-0.17369086 -0.09422709 1.0530001
-0.15915875 -0.094137609 1.052
-0.18231934 -0.091350928 1.0530001
-0.17944318 -0.091350928 1.0530001
-0.17081469 -0.091350928 1.0530001
-0.16506237 -0.091350928 1.0530001
-0.15628532 -0.091264173 1.052
-0.18501963 -0.088390738 1.052
-0.17927276 -0.08551731 1.052
-0.15931004 -0.085598603 1.0530001
-0.15931004 -0.08272244 1.0530001
-0.17656702 -0.074093953 1.0530001
-0.15341188 -0.071150154 1.052
-0.15931004 -0.056836981 1.0530001
-0.15355772 -0.056836981 1.0530001
-0.096034475 -0.030951524 1.0530001
-0.072955832 -0.028048702 1.052
-0.12767226 -0.022323038 1.0530001
-0.12467758 -0.01942841 1.052
-0.058644373 -0.019446878 1.0530001
-0.11893072 -0.016554978 1.052
-0.11041529 -0.016570715 1.0530001
-0.13342458 -0.013694553 1.0530001
-0.11605729 -0.013681548 1.052
-0.107437 -0.013681548 1.052
-0.10456356 -0.013681548 1.052
-0.052892048 -0.013694553 1.0530001
-0.098910637 -0.010818391 1.0530001
-0.10753912 -0.0079422286 1.0530001
-0.093158312 -0.005066067 1.0530001
-0.090196416 -0.0050612558 1.052
-0.12191994 -0.0021899049 1.0530001
-0.093069844 -0.0021878253 1.052
-0.041348092 -0.0021878253 1.052
-0.038511239 0.00068625709 1.0530001
-0.084529832 0.012190905 1.0530001
-0.07582926 0.012179327 1.052
-0.015487219 0.020799618 1.052
-0.0039934968 0.032293342 1.052
-0.052892048 0.043828689 1.0530001
-0.027006591 0.063961819 1.0530001
-0.01836065 0.069647938 1.052
-0.012625779 0.072590306 1.0530001
-0.0097403582 0.072521374 1.052
-0.0097496165 0.075466469 1.0530001
0.0046267952 0.081141666 1.052
0.007507355 0.084094957 1.0530001
0.010383517 0.084094957 1.0530001
0.019012002 0.086971119 1.0530001
0.024764325 0.089847274 1.0530001
0.027640488 0.092723437 1.0530001
0.030516651 0.092723437 1.0530001
0.059278268 0.092723437 1.0530001
0.062154431 0.095599599 1.0530001
0.039145134 0.098475762 1.0530001
0.044897459 0.10135192 1.0530001
0.047728255 0.10125567 1.052
0.067842267 0.10125567 1.052
0.050601687 0.10412911 1.052
0.053475115 0.10412911 1.052
0.070715703 0.10412911 1.052
0.070782915 0.10710425 1.0530001
0.076462559 0.10987596 1.052
0.062154431 0.11285657 1.0530001
0.065030597 0.11285657 1.0530001
0.067842267 0.1127494 1.052
0.076462559 0.1127494 1.052
0.079335995 0.11562283 1.052
0.082209423 0.11562283 1.052
0.073659077 0.11860889 1.0530001
0.07653524 0.11860889 1.0530001
0.082287565 0.11860889 1.0530001
0.08803989 0.11860889 1.0530001
0.079411402 0.12148505 1.0530001
0.090916052 0.12148505 1.0530001
0.085163727 0.12436122 1.0530001
0.08803989 0.12436122 1.0530001
0.090916052 0.12436122 1.0530001
0.090829715 0.12711655 1.052
0.093703143 0.12711655 1.052
0.096668378 0.12723738 1.0530001
0.1024207 0.1329897 1.0530001
0.10519686 0.1328634 1.052
0.1080703 0.1328634 1.052
0.11104918 0.1329897 1.0530001
0.11392535 0.1329897 1.0530001
0.10529687 0.13586587 1.0530001
0.10817302 0.13586587 1.0530001
0.10817302 0.13874203 1.0530001
0.11104918 0.13874203 1.0530001
0.11381716 0.13861027 1.052
0.12243745 0.14435713 1.052
0.12542999 0.14449435 1.0530001
0.13105774 0.14435713 1.052
0.13393117 0.14435713 1.052
0.12243745 0.14723057 1.052
0.13405848 0.14737052 1.0530001
0.12243745 0.15010399 1.052
0.13693464 0.15024668 1.0530001
0.12542999 0.15312284 1.0530001
0.13693464 0.15312284 1.0530001
0.13405848 0.15887517 1.0530001
0.13680461 0.15872428 1.052
-0.17995441 -0.10891732 1.056
-0.18860748 -0.10603296 1.056
-0.17418569 -0.10603296 1.056
-0.18537137 -0.10583215 1.054
-0.18249248 -0.10583215 1.054
-0.17690237 -0.10593255 1.0550001
-0.19149184 -0.10314861 1.056
-0.18860748 -0.10314861 1.056
-0.18572313 -0.10314861 1.056
-0.18283877 -0.10314861 1.056
-0.179784 -0.10305092 1.0550001
-0.17690237 -0.10305092 1.0550001
-0.19707376 -0.1001693 1.0550001
-0.18249248 -0.10007437 1.054
-0.1767347 -0.10007437 1.054
-0.19400805 -0.097195469 1.054
-0.18825027 -0.097195469 1.054
-0.18572313 -0.097379893 1.056
-0.17961359 -0.097195469 1.054
-0.1767347 -0.097195469 1.054
-0.17418569 -0.097379893 1.056
-0.19400805 -0.094316579 1.054
-0.16553262 -0.094495535 1.056
-0.15673099 -0.094406053 1.0550001
-0.18842888 -0.09152443 1.0550001
-0.18537137 -0.091437683 1.054
-0.16825749 -0.09152443 1.0550001
-0.18825027 -0.088558786 1.054
-0.15082465 -0.088558786 1.054
-0.18554725 -0.085761182 1.0550001
-0.18249248 -0.085679889 1.054
-0.15658244 -0.085679889 1.054
-0.15370356 -0.085679889 1.054
-0.15096775 -0.085761182 1.0550001
-0.18572313 -0.082958117 1.056
-0.18249248 -0.082800999 1.054
-0.17961359 -0.079922102 1.054
-0.17995441 -0.077189408 1.056
-0.15687956 -0.077189408 1.056
-0.17113912 -0.068471432 1.0550001
-0.15370356 -0.06840653 1.054
-0.16809802 -0.06552764 1.054
-0.1539952 -0.065651983 1.056
-0.16521913 -0.062648743 1.054
-0.1539952 -0.05988327 1.056
-0.11638825 -0.031010313 1.0550001
-0.11350662 -0.028128687 1.0550001
-0.13655962 -0.025247063 1.0550001
-0.13367799 -0.025247063 1.0550001
-0.13079637 -0.025247063 1.0550001
-0.12803599 -0.025270995 1.056
-0.13957343 -0.022386638 1.056
-0.12503313 -0.022365438 1.0550001
-0.12226728 -0.022386638 1.056
-0.061695803 -0.022386638 1.056
-0.11339904 -0.019465344 1.054
-0.12491462 -0.016586451 1.054
-0.12215149 -0.016602188 1.0550001
-0.05592709 -0.016617924 1.056
-0.12203572 -0.013707558 1.054
-0.11915683 -0.013707558 1.054
-0.10188347 -0.013707558 1.054
-0.11072986 -0.010849212 1.056
-0.10764126 -0.010828665 1.054
-0.090367891 -0.010828665 1.054
-0.05011088 -0.010838938 1.0550001
-0.12203572 -0.0079497714 1.054
-0.11072986 -0.007964856 1.056
-0.093335249 -0.0079573132 1.0550001
-0.087488994 -0.0079497714 1.054
-0.04718449 -0.0079497714 1.054
-0.12779351 -0.0050708777 1.054
-0.12203572 -0.0050708777 1.054
-0.10476236 -0.0050708777 1.054
-0.044389669 -0.0050805002 1.056
-0.12515163 -0.0021961438 1.056
-0.11926987 -0.0021940642 1.0550001
-0.11926987 0.00068756053 1.0550001
-0.099004574 0.00068690884 1.054
-0.096125677 0.00068690884 1.054
-0.093246788 0.00068690884 1.054
-0.093246788 0.0064446954 1.054
-0.032821134 0.0064508105 1.0550001
-0.029911131 0.0093235886 1.054
-0.087655008 0.012225637 1.056
-0.027032237 0.012202483 1.054
-0.018395556 0.017960269 1.054
-0.076045506 0.023740558 1.0550001
-0.073163882 0.026622184 1.0550001
-0.009768134 0.026622184 1.0550001
-0.070215635 0.029475844 1.054
-0.067464516 0.032416128 1.056
-0.064457849 0.035233628 1.054
-0.061695803 0.03818484 1.056
-0.058811445 0.041069198 1.056
-0.050158378 0.046837911 1.056
0.013297456 0.046837911 1.056
-0.04718449 0.049628098 1.054
-0.044305597 0.052506991 1.054
-0.03854781 0.055385884 1.054
-0.035668917 0.058264777 1.054
0.024834881 0.058375336 1.056
-0.032852244 0.061259691 1.056
0.027692987 0.06120168 1.0550001
-0.029939508 0.064083308 1.0550001
0.030545631 0.064022563 1.054
-0.021274449 0.06690146 1.054
0.03348795 0.067028403 1.056
-0.021314818 0.069912761 1.056
0.03633786 0.069846556 1.0550001
-0.015531384 0.072728179 1.0550001
0.039219487 0.072728179 1.0550001
-0.01264976 0.075609803 1.0550001
0.042061206 0.075538136 1.054
-0.0068799825 0.078417033 1.054
-0.004004885 0.078491427 1.0550001
-0.0011232602 0.078491427 1.0550001
0.0017583644 0.078491427 1.0550001
0.045025375 0.078565829 1.056
-0.001124325 0.081450187 1.056
0.0017566978 0.081295922 1.054
0.0017600312 0.084334537 1.056
0.0046355911 0.084174819 1.054
0.013272271 0.084174819 1.054
0.016151166 0.084174819 1.054
0.047818992 0.084174819 1.054
0.0075216144 0.087136306 1.0550001
0.010393377 0.087053709 1.054
0.013272271 0.087053709 1.054
0.016181812 0.087218896 1.056
0.05362761 0.087136306 1.0550001
0.021950524 0.090103261 1.056
0.056509234 0.090017937 1.0550001
0.021929737 0.092899561 1.0550001
0.024787843 0.092811495 1.054
0.036303416 0.095690385 1.054
0.024834881 0.098756328 1.056
0.027719237 0.098756328 1.056
0.068035737 0.098662809 1.0550001
0.07098458 0.10164068 1.056
0.045025375 0.10452504 1.056
0.047818992 0.10432707 1.054
0.073868938 0.10452504 1.056
0.050794087 0.1074094 1.056
0.053678446 0.1074094 1.056
0.073729031 0.10720596 1.054
0.076753296 0.1074094 1.056
0.056455676 0.11008485 1.054
0.079486825 0.11008485 1.054
0.059334569 0.11296374 1.054
0.079486825 0.11296374 1.054
0.065154113 0.11595256 1.0550001
0.067971244 0.11584264 1.054
0.0881235 0.11584264 1.054
0.062331513 0.11606246 1.056
0.07098458 0.11894682 1.056
0.079486825 0.11872153 1.054
0.073798984 0.12171581 1.0550001
0.076607928 0.12160043 1.054
0.082443856 0.12459743 1.0550001
0.09405943 0.12471553 1.056
0.082522005 0.1275999 1.056
0.085244611 0.12735821 1.054
0.0881235 0.12735821 1.054
0.099828146 0.1275999 1.056
0.1027125 0.1275999 1.056
0.091175072 0.13048424 1.056
0.093881279 0.1302371 1.054
0.09685199 0.13036068 1.0550001
0.10559686 0.13048424 1.056
0.10848121 0.13048424 1.056
0.11136557 0.13048424 1.056
0.09405943 0.1333686 1.056
0.09685199 0.13324231 1.0550001
0.099733613 0.13324231 1.0550001
0.11713428 0.1333686 1.056
0.11115465 0.1359949 1.054
0.10261524 0.13612393 1.0550001
0.11414173 0.13612393 1.0550001
0.11713428 0.13625295 1.056
0.1027125 0.13913731 1.056
0.10539686 0.13887379 1.054
0.11691243 0.13887379 1.054
0.12001864 0.13913731 1.056
0.11126011 0.14188717 1.0550001
0.11414173 0.14188717 1.0550001
0.11702336 0.14188717 1.0550001
0.12001864 0.14202167 1.056
0.11414173 0.1447688 1.0550001
0.11691243 0.14463158 1.054
0.11979132 0.14463158 1.054
0.12001864 0.14779039 1.056
0.13994357 0.15038936 1.054
0.14020912 0.15355909 1.056
0.13994357 0.15614715 1.054
0.1313069 0.15902604 1.054
0.13444042 0.16221216 1.056
-0.19167317 -0.10613337 1.057
-0.19456027 -0.10324629 1.057
-0.17435065 -0.10324629 1.057
-0.20033444 -0.1003592 1.057
-0.17435065 -0.1003592 1.057
-0.18301192 -0.097472109 1.057
-0.14836685 -0.085923769 1.057
-0.15702812 -0.083036676 1.057
-0.15125394 -0.083036676 1.057
-0.16568938 -0.059939977 1.057
-0.15702812 -0.054165803 1.057
-0.093512192 -0.031069098 1.057
-0.070415489 -0.028182011 1.057
-0.12527016 -0.025294924 1.057
-0.12238307 -0.010859487 1.057
-0.13104433 -0.0079723988 1.057
-0.090625107 -0.0079723988 1.057
-0.10506054 -0.0021982237 1.057
-0.096399277 0.0035759516 1.057
-0.079076752 0.020898478 1.057
0.007535873 0.04110809 1.057
-0.024222091 0.067091875 1.057
-0.018447915 0.072866052 1.057
-0.015560827 0.075753137 1.057
-0.0040124771 0.081527315 1.057
0.047955099 0.081527315 1.057
0.050842188 0.0844144 1.057
0.0046487856 0.087301493 1.057
0.01042296 0.090188585 1.057
0.013310049 0.090188585 1.057
0.019084224 0.09307567 1.057
0.062390536 0.09307567 1.057
0.024858398 0.095962755 1.057
0.027745487 0.095962755 1.057
0.030632574 0.095962755 1.057
0.033519663 0.095962755 1.057
0.065277629 0.095962755 1.057
0.030632574 0.098849848 1.057
0.036406748 0.098849848 1.057
0.082600154 0.11328528 1.057
0.059503451 0.11617237 1.057
0.094148502 0.12194654 1.057
0.079713061 0.12483364 1.057
0.097035587 0.12483364 1.057
0.099922679 0.13060781 1.057
0.10280976 0.13060781 1.057
0.11435811 0.13060781 1.057
0.099922679 0.13638198 1.057
0.10858394 0.14215615 1.057
0.13168064 0.14215615 1.057
0.11147103 0.14504324 1.057
0.13745481 0.14504324 1.057
0.13745481 0.14793034 1.057
0.12013229 0.15081742 1.057
0.12301937 0.15370451 1.057
0.12590647 0.15659159 1.057
-0.20939115 -0.11211929 1.059
-0.20341377 -0.11201342 1.0580001
-0.19782093 -0.11211929 1.059
-0.18625073 -0.10922675 1.059
-0.18318504 -0.1091236 1.0580001
-0.1775731 -0.10922675 1.059
-0.20360604 -0.10633419 1.059
-0.19763413 -0.10623378 1.0580001
-0.19474432 -0.10623378 1.0580001
-0.17178799 -0.10633419 1.059
-0.20071349 -0.10344165 1.059
-0.19763413 -0.10334396 1.0580001
-0.20360604 -0.10054909 1.059
-0.19763413 -0.097564325 1.0580001
-0.16311035 -0.097656541 1.059
-0.1600665 -0.097564325 1.0580001
-0.19763413 -0.094674505 1.0580001
-0.17178799 -0.094763994 1.059
-0.19185449 -0.091784686 1.0580001
-0.15428686 -0.091784686 1.0580001
-0.19185449 -0.088894874 1.0580001
-0.18896468 -0.086005054 1.0580001
-0.18896468 -0.083115235 1.0580001
-0.15428686 -0.083115235 1.0580001
-0.14864759 -0.083193794 1.059
-0.18318504 -0.080225416 1.0580001
-0.1600665 -0.080225416 1.0580001
-0.17740542 -0.071555957 1.0580001
-0.17468055 -0.06873104 1.059
-0.17178799 -0.065838493 1.059
-0.15154015 -0.065838493 1.059
-0.16889544 -0.06294594 1.059
-0.16295631 -0.05710686 1.0580001
-0.1544327 -0.054268289 1.059
-0.11393699 -0.034020439 1.059
-0.11671922 -0.033988312 1.0580001
-0.13996994 -0.025342787 1.059
-0.12261464 -0.025342787 1.059
-0.11104444 -0.025342787 1.059
-0.064763628 -0.025342787 1.059
-0.11972209 -0.022450237 1.059
-0.13983777 -0.019539218 1.0580001
-0.11104444 -0.019557685 1.059
-0.13694794 -0.016649399 1.0580001
-0.10804976 -0.016649399 1.0580001
-0.099474236 -0.016665135 1.059
-0.099474236 -0.013772584 1.059
-0.09649048 -0.01375958 1.0580001
-0.11393699 -0.010880034 1.059
-0.09649048 -0.01086976 1.0580001
-0.10815189 -0.0050949333 1.059
-0.038730673 -0.002202383 1.059
-0.11682954 0.00069016742 1.059
-0.10236678 0.00069016742 1.059
-0.11972209 0.0035827179 1.059
-0.11682954 0.0035827179 1.059
-0.021355188 0.01513861 1.0580001
0.0017633645 0.035367344 1.0580001
0.0046575814 0.038293321 1.059
-0.056085974 0.044078421 1.059
0.010432822 0.044036798 1.0580001
0.01621246 0.049816441 1.0580001
-0.047408324 0.052756075 1.059
0.019102277 0.05270626 1.0580001
0.022012884 0.055648625 1.059
-0.038730673 0.058541175 1.059
-0.024267921 0.070111379 1.059
-0.0097959116 0.078714631 1.0580001
-0.0069060922 0.081604451 1.0580001
-0.0011264544 0.08449427 1.0580001
-0.0011275191 0.08746668 1.059
0.0017633645 0.08738409 1.0580001
0.016227784 0.090359233 1.059
0.019120334 0.090359233 1.059
0.01332264 0.093163729 1.0580001
0.01621246 0.093163729 1.0580001
0.022012884 0.096144333 1.059
0.021992097 0.09894336 1.0580001
0.033551373 0.09894336 1.0580001
0.027797986 0.10192943 1.059
0.030690536 0.10192943 1.059
0.042220831 0.10183318 1.0580001
0.048000466 0.10761282 1.0580001
0.079863891 0.10771453 1.059
0.053780105 0.11050264 1.0580001
0.082756445 0.11060708 1.059
0.056669924 0.11339246 1.0580001
0.085568115 0.11339246 1.0580001
0.068293691 0.11928473 1.059
0.091434091 0.11928473 1.059
0.071119018 0.12206192 1.0580001
0.097219191 0.12217729 1.059
0.076971345 0.12506984 1.059
0.10011174 0.12506984 1.059
0.079863891 0.12796238 1.059
0.10589684 0.12796238 1.059
0.088541545 0.13085493 1.059
0.091434091 0.13374749 1.059
0.12035959 0.13664004 1.059
0.1000172 0.13940082 1.0580001
0.12325215 0.13953258 1.059
0.10589684 0.14242513 1.059
0.12313576 0.14229065 1.0580001
0.12614469 0.14242513 1.059
0.1289154 0.14229065 1.0580001
0.13469504 0.14229065 1.0580001
0.10878939 0.14531769 1.059
0.11735612 0.14807029 1.0580001
0.14060745 0.14821024 1.059
0.11746705 0.15110278 1.059
0.1289154 0.15962957 1.0580001
0.1319298 0.162673 1.059
0.13771489 0.162673 1.059
-0.20958887 -0.11801574 1.0600001
-0.20688859 -0.11812707 1.0610001
-0.20399056 -0.11812707 1.0610001
-0.20399056 -0.11522906 1.0610001
-0.21558262 -0.11233104 1.0610001
-0.2126846 -0.11233104 1.0610001
-0.20669359 -0.11222517 1.0600001
-0.20090303 -0.11222517 1.0600001
-0.19511245 -0.11222517 1.0600001
-0.19221717 -0.11222517 1.0600001
-0.1895005 -0.11233104 1.0610001
-0.18660249 -0.11233104 1.0610001
-0.18370448 -0.11233104 1.0610001
-0.18063605 -0.11222517 1.0600001
-0.19800773 -0.10932989 1.0600001
-0.19511245 -0.10932989 1.0600001
-0.19221717 -0.10932989 1.0600001
-0.1895005 -0.10943303 1.0610001
-0.17484549 -0.10932989 1.0600001
-0.20958887 -0.10643461 1.0600001
-0.20669359 -0.10643461 1.0600001
-0.20090303 -0.10643461 1.0600001
-0.20399056 -0.103637 1.0610001
-0.17195021 -0.10353933 1.0600001
-0.17195021 -0.10064404 1.0600001
-0.20090303 -0.097748764 1.0600001
-0.20109256 -0.094942965 1.0610001
-0.16905493 -0.094853476 1.0600001
-0.19511245 -0.091958195 1.0600001
-0.19529653 -0.089146934 1.0610001
-0.19239852 -0.086248927 1.0610001
-0.18370448 -0.077554882 1.0610001
-0.18063605 -0.074586503 1.0600001
-0.15472434 -0.074656874 1.0610001
-0.15457851 -0.06300538 1.0600001
-0.16036908 -0.054319534 1.0600001
-0.14023428 -0.042778727 1.0610001
-0.13733627 -0.042778727 1.0610001
-0.13443825 -0.0369827 1.0610001
-0.12574421 -0.034084689 1.0610001
-0.1228462 -0.034084689 1.0610001
-0.11983513 -0.034052562 1.0600001
-0.12864223 -0.031186674 1.0610001
-0.12574421 -0.031186674 1.0610001
-0.12273041 -0.031157279 1.0600001
-0.11983513 -0.031157279 1.0600001
-0.093777597 -0.010890308 1.0600001
-0.11994819 -0.008002568 1.0610001
-0.11415216 -0.008002568 1.0610001
-0.04455781 -0.0079950262 1.0600001
-0.11705017 -0.0022065423 1.0610001
-0.12273041 0.00069081911 1.0600001
-0.035871968 0.00069081911 1.0600001
-0.099568158 0.0035861006 1.0600001
-0.032976683 0.0035861006 1.0600001
-0.093777597 0.0093766646 1.0600001
-0.024313755 0.012283524 1.0610001
-0.012721702 0.020977562 1.0610001
-0.0040238658 0.029643638 1.0600001
-0.0011285838 0.032538921 1.0600001
-0.053293884 0.047059681 1.0610001
-0.041662529 0.055701174 1.0600001
-0.033007793 0.064447761 1.0610001
0.033646509 0.064447761 1.0610001
-0.02718612 0.067282297 1.0600001
0.039405361 0.070177585 1.0600001
-0.018500274 0.075968146 1.0600001
0.045195922 0.075968146 1.0600001
-0.0040276614 0.084733851 1.0610001
0.053932603 0.084733851 1.0610001
0.056777049 0.087549269 1.0600001
0.007564391 0.090529881 1.0610001
0.059672333 0.090444557 1.0600001
0.010452543 0.093339838 1.0600001
0.06552466 0.093427889 1.0610001
0.019156443 0.096325904 1.0610001
0.019138388 0.0991304 1.0600001
0.071320683 0.099223919 1.0610001
0.024928952 0.10202568 1.0600001
0.033646509 0.10212193 1.0610001
0.039442535 0.10212193 1.0610001
0.074218698 0.10212193 1.0610001
0.027850483 0.10501994 1.0610001
0.030719515 0.10492096 1.0600001
0.042340547 0.10501994 1.0610001
0.077044025 0.10492096 1.0600001
0.045195922 0.10781624 1.0600001
0.048136577 0.11081597 1.0610001
0.050986487 0.11071153 1.0600001
0.053932603 0.11371399 1.0610001
0.056777049 0.11650209 1.0600001
0.091606773 0.11661199 1.0610001
0.062626645 0.11951001 1.0610001
0.065462895 0.11939737 1.0600001
0.10889213 0.12808321 1.0600001
0.11178741 0.12808321 1.0600001
0.11479088 0.12820405 1.0610001
0.12058691 0.13400008 1.0610001
0.097310998 0.13676906 1.0600001
0.12638293 0.13979611 1.0610001
0.12915909 0.13966435 1.0600001
0.140873 0.14559212 1.0610001
0.11479088 0.14849015 1.0610001
0.11479088 0.15138815 1.0610001
-0.21889248 -0.12415669 1.0630001
-0.21598901 -0.12415669 1.0630001
-0.21018206 -0.12415669 1.0630001
-0.21018206 -0.12125321 1.0630001
-0.21598901 -0.11834975 1.0630001
-0.21288507 -0.1182384 1.062
-0.20128208 -0.1182384 1.062
