ply
format ascii 1.0
comment PCL generated
element vertex 676
property float x
property float y
property float z
element camera 1
property float view_px
property float view_py
property float view_pz
property float x_axisx
property float x_axisy
property float x_axisz
property float y_axisx
property float y_axisy
property float y_axisz
property float z_axisx
property float z_axisy
property float z_axisz
property float focal
property float scalex
property float scaley
property float centerx
property float centery
property int viewportx
property int viewporty
property float k1
property float k2
end_header
-0.032849491 -0.037882578 0.1
-0.032677922 -0.035823125 0.10200001
-0.032056727 -0.035690706 0.101
-0.034331806 -0.036791269 0.10339999
-0.035856035 -0.037449434 0.10533334
-0.034776274 -0.037104197 0.105
-0.040370267 -0.038824987 0.11190477
-0.039494604 -0.039222736 0.11175
0.023879932 -0.025240289 0.60900003
0.026848121 -0.025240289 0.60900003
0.028332215 -0.025240289 0.60900003
0.01893295 -0.023657255 0.60900003
0.020911742 -0.023756195 0.60900003
0.02387993 -0.023756193 0.60900003
0.026848121 -0.023756195 0.60900003
0.028826913 -0.023756193 0.60900003
0.031795103 -0.023756195 0.60900003
0.014480668 -0.020293308 0.60900003
0.015964761 -0.020788006 0.60900003
0.0189275 -0.020782452 0.60883337
0.020877406 -0.020753872 0.60800004
0.02384072 -0.020753872 0.60800004
0.026804034 -0.020753872 0.60800004
0.028803786 -0.020771075 0.6085
0.031795103 -0.020788006 0.60900003
0.032784499 -0.020788006 0.60900003
0.012007178 -0.019303912 0.60900003
0.014480668 -0.019303912 0.60900003
0.015964761 -0.019303912 0.60900003
0.018901862 -0.019272216 0.60800004
0.020877406 -0.019272216 0.60800004
0.02384072 -0.019272216 0.60800004
0.026804034 -0.019272216 0.60800004
0.028779576 -0.019272216 0.60800004
0.031795103 -0.019303912 0.60900003
0.032784499 -0.019303912 0.60900003
-0.012727727 -0.015346328 0.60900003
-0.011243632 -0.015841026 0.60900003
-0.0087701418 -0.015841026 0.60900003
-0.0062966519 -0.015841026 0.60900003
-0.0033284631 -0.015346328 0.60900003
-0.0018443688 -0.015346328 0.60900003
0.0016185178 -0.015346328 0.60900003
0.003102612 -0.015346328 0.60900003
0.0062686801 -0.015742086 0.60900003
0.0090389885 -0.016335724 0.60900003
0.011017781 -0.016335724 0.60900003
0.01447657 -0.016331524 0.60883331
0.015938548 -0.0163089 0.60800004
0.018901862 -0.0163089 0.60800004
0.020877406 -0.0163089 0.60800004
0.023840722 -0.0163089 0.60800004
0.026804036 -0.0163089 0.60800004
0.028785016 -0.0163117 0.60811114
0.031795103 -0.016335724 0.60900003
0.032784499 -0.016335724 0.60900003
-0.013717123 -0.014356932 0.60900003
-0.011243632 -0.014356932 0.60900003
-0.0087701418 -0.014356932 0.60900003
-0.0062966519 -0.014356932 0.60900003
-0.0033284631 -0.014356932 0.60900003
-0.0013496707 -0.014356932 0.60900003
0.0016185178 -0.014356932 0.60900003
0.003102612 -0.014356932 0.60900003
0.0060708001 -0.014356931 0.60900003
0.0090389885 -0.014356932 0.60900003
0.011017781 -0.014356931 0.60900003
0.014468373 -0.014345145 0.6085
0.015938548 -0.014333357 0.60800004
0.018901862 -0.014333357 0.60800004
0.020877406 -0.014333357 0.60800004
0.02384072 -0.014333357 0.60800004
0.026804034 -0.014333357 0.60800004
0.028811678 -0.014349073 0.60866666
0.031795103 -0.014356932 0.60900003
0.032784499 -0.014356932 0.60900003
-0.013717123 -0.011388744 0.60900003
-0.011243633 -0.011388744 0.60900003
-0.0087701418 -0.011388744 0.60900003
-0.0062966519 -0.011388744 0.60900003
-0.0033284631 -0.011388744 0.60900003
-0.0013496707 -0.011388744 0.60900003
0.0016185177 -0.011388744 0.60900003
0.003102612 -0.011388744 0.60900003
0.0060708001 -0.011388744 0.60900003
0.0090389885 -0.011388744 0.60900003
0.011017781 -0.011388743 0.60900003
0.014472471 -0.01138224 0.60866672
0.015938548 -0.011370043 0.60800004
0.018901862 -0.011370043 0.60800004
0.020877406 -0.011370043 0.60800004
0.023849612 -0.011373837 0.60822225
0.026833424 -0.011381969 0.60866672
0.028826915 -0.011388743 0.60900003
0.031795103 -0.011883441 0.60900003
-0.013717123 -0.0084205559 0.60900003
-0.011243632 -0.0084205559 0.60900003
-0.0087701418 -0.0084205559 0.60900003
-0.0062966519 -0.0084205559 0.60900003
-0.0033284631 -0.0084205559 0.60900003
-0.0013496707 -0.0084205559 0.60900003
0.0016185178 -0.0084205559 0.60900003
0.003102612 -0.0084205559 0.60900003
0.0060708001 -0.0084205559 0.60900003
0.0090389885 -0.0084205559 0.60900003
0.011017781 -0.0084205559 0.60900003
0.014480668 -0.0084205559 0.60900003
0.015964761 -0.0084205559 0.60900003
0.01893295 -0.0084205559 0.60900003
0.020911742 -0.0084205559 0.60900003
0.023879932 -0.0084205559 0.60900003
0.026848121 -0.0084205559 0.60900003
0.028332215 -0.0084205559 0.60900003
-0.012727727 -0.0074311593 0.60900003
-0.011243632 -0.0069364612 0.60900003
-0.0087701418 -0.0064417631 0.60900003
-0.0062966519 -0.0064417631 0.60900003
-0.0033284631 -0.0069364612 0.60900003
-0.0013496707 -0.0074311593 0.60900003
0.0016185178 -0.0074311593 0.60900003
0.003102612 -0.0069364612 0.60900003
0.0062121423 -0.0067244479 0.60900003
0.0090389885 -0.0064417631 0.60900003
0.011017781 -0.0064417636 0.60900003
0.014480669 -0.0064417631 0.60900003
0.015964761 -0.0064417631 0.60900003
0.01893295 -0.0064417636 0.60900003
0.020911744 -0.0064417631 0.60900003
0.023738591 -0.0067244479 0.60900003
0.0090389885 -0.003473575 0.60900003
0.011017781 -0.003473575 0.60900003
0.014480668 -0.003473575 0.60900003
0.015964761 -0.003473575 0.60900003
0.01893295 -0.003473575 0.60900003
0.020911742 -0.003473575 0.60900003
0.0090389885 -0.0019894808 0.60900003
0.012007178 -0.0024841789 0.60900003
0.014480668 -0.0019894808 0.60900003
0.015964761 -0.0019894808 0.60900003
0.018685602 -0.0022368298 0.60900003
0.0090389885 0.00097870745 0.60900003
0.017943554 0.00048400939 0.60900003
0.028968915 -0.033318784 0.61200005
0.031951725 -0.033318784 0.61200005
0.032945998 -0.033318784 0.61200005
0.021014756 -0.030335976 0.61200005
0.02419642 -0.031131392 0.61200005
0.025964875 -0.031305462 0.61150002
0.02894525 -0.031305462 0.61150002
0.031925622 -0.031305462 0.61150002
0.033940267 -0.031330243 0.61200005
0.036923077 -0.030335976 0.61200005
0.014054866 -0.028347434 0.61200005
0.01654054 -0.028347434 0.61200005
0.019346735 -0.028663419 0.61166668
0.020671887 -0.028994843 0.61166668
0.023938747 -0.028774278 0.61050004
0.025922414 -0.02877428 0.61049998
0.028897913 -0.028774278 0.61050004
0.031873412 -0.02877428 0.61049998
0.033894323 -0.028805429 0.61116666
0.036923077 -0.028844569 0.61200005
0.037917346 -0.028347434 0.61200005
-0.0028477244 -0.025364624 0.61200005
-0.0013563193 -0.025364624 0.61200005
0.011320625 -0.025861761 0.61200005
0.014043383 -0.026338173 0.61150002
0.016016649 -0.026316369 0.611
0.019467322 -0.026283929 0.61025
0.02094608 -0.026272755 0.61000001
0.023919143 -0.027263775 0.61000001
0.025901185 -0.027263775 0.61000001
0.029122002 -0.026768265 0.61000001
0.031847309 -0.026272755 0.61000001
0.033857625 -0.026294559 0.61050004
0.036892913 -0.026338173 0.61150002
0.037917346 -0.026358895 0.61200005
-0.0078190742 -0.023376085 0.61200005
-0.0061587817 -0.023694778 0.61166668
-0.0031755043 -0.023682045 0.61133337
-0.0013552113 -0.023854122 0.61150002
0.0016264908 -0.023873221 0.61200005
0.0031178959 -0.023873221 0.61200005
0.0060987738 -0.023866855 0.61183339
0.0080826376 -0.023854122 0.61150002
0.011056709 -0.023840846 0.61116666
0.01434693 -0.023643306 0.61033338
0.015668834 -0.023973646 0.61033338
0.018964039 -0.024290714 0.61000001
0.033838861 -0.023801841 0.61016673
0.036862746 -0.023834212 0.611
0.038414482 -0.023873219 0.61200005
-0.010801884 -0.020393275 0.61200005
-0.0088101504 -0.020882081 0.61175007
-0.0063149482 -0.020847945 0.61075002
-0.0033366613 -0.020839615 0.61049998
-0.0013533459 -0.020847945 0.61075002
0.0016238331 -0.020856276 0.611
0.0031128014 -0.020856276 0.611
0.0060871444 -0.020845167 0.61066669
0.0080694202 -0.020839615 0.61049998
0.011038617 -0.020827966 0.61016673
0.014504446 -0.021317651 0.61000001
0.034324862 -0.020822141 0.61000001
0.036862746 -0.020856276 0.611
0.03824877 -0.021056123 0.61200005
-0.013784695 -0.019399006 0.61200005
-0.011262095 -0.019335611 0.61000001
-0.0087845437 -0.019335611 0.61000001
-0.006306991 -0.019335611 0.61000001
-0.0033339285 -0.019335611 0.61000001
-0.0013518869 -0.019335611 0.61000001
0.0016211756 -0.019335611 0.61000001
0.0031077068 -0.019335611 0.61000001
0.006080769 -0.019335611 0.61000001
0.0080628106 -0.019335611 0.61000001
0.010540362 -0.019335611 0.61000001
0.034324862 -0.019335611 0.61000001
0.036862746 -0.019367307 0.611
0.037917346 -0.01890187 0.61200005
-0.013417356 -0.016370947 0.61033332
-0.011262095 -0.017353568 0.61000001
-0.0087845437 -0.017353568 0.61000001
-0.006306991 -0.017353568 0.61000001
-0.0033339285 -0.016858058 0.61000001
-0.0012527847 -0.016560752 0.61000001
0.0016211756 -0.016858058 0.61000001
0.0031077068 -0.016858058 0.61000001
0.0058330139 -0.017105814 0.61000001
0.034324862 -0.016362548 0.61000007
0.036882859 -0.016397772 0.61133337
0.034353405 -0.014392294 0.61049998
0.031847309 -0.010416424 0.61000001
0.033361569 -0.011416796 0.61050004
0.029865267 -0.0084343823 0.61000001
0.031847309 -0.0084343823 0.61000001
0.0333893 -0.0084482096 0.61100006
-0.010766584 -0.0054613198 0.61000001
-0.0033339285 -0.0054613198 0.61000001
-0.0013518869 -0.0059568305 0.61000001
0.0016211756 -0.0059568305 0.61000001
0.0031077068 -0.0054613198 0.61000001
0.0055852588 -0.0054613198 0.61000001
0.024414653 -0.0054613198 0.61000001
0.025901185 -0.0064523406 0.61000001
0.028890388 -0.0064555053 0.61033338
0.031847309 -0.0074433614 0.61000001
0.033259477 -0.007132275 0.61166668
-0.0077935224 -0.0034792786 0.61000001
-0.006306991 -0.0034792786 0.61000001
-0.0033339285 -0.0034792786 0.61000001
-0.0013518869 -0.0034792786 0.61000001
0.0016211756 -0.0034792786 0.61000001
0.0031077068 -0.0034792786 0.61000001
0.006080769 -0.0034792786 0.61000001
0.023919143 -0.0034792786 0.61000001
0.025901185 -0.0034792786 0.61000001
0.028425261 -0.0034849825 0.611
-0.0058114803 -0.0024882581 0.61000001
-0.0031687582 -0.0021579179 0.61000001
-0.0013518869 -0.0019927477 0.61000001
0.0016211756 -0.0019927477 0.61000001
0.0031077068 -0.0019927477 0.61000001
0.006080769 -0.0019927477 0.61000007
0.010837669 -0.0018936455 0.61000001
0.019459549 -0.0014972372 0.61000001
0.02094608 -0.0019927477 0.61000001
0.023925947 -0.0019931567 0.61016673
0.025943644 -0.0019960145 0.611
0.028290832 -0.0021636332 0.61166668
-0.0013518869 0.00048480416 0.61000001
0.0016211756 0.00048480416 0.61000001
0.0031077068 0.00098031457 0.61000001
0.0062046465 0.0013519472 0.61000007
0.0080628106 0.0024668456 0.61000001
0.011035872 0.0014758249 0.61000007
0.014504445 0.0014758249 0.61000007
0.016387384 0.0016740288 0.61000001
0.019459549 0.0014758249 0.61000007
0.020957524 0.0014771729 0.61033332
0.023954179 0.001478156 0.6108889
0.025971951 0.0014803987 0.61166668
0.027974647 0.00098352868 0.61200005
0.0080628106 0.0034578666 0.61000001
0.011035872 0.0034578666 0.61000001
0.014504446 0.0034578666 0.61000001
0.016486486 0.0034578666 0.61000001
0.019475907 0.0034607006 0.61049998
0.020980418 0.0034635349 0.611
0.023971966 0.0034654245 0.61133337
0.025986105 0.0034692036 0.61200005
0.011234077 0.0058363164 0.61000001
0.014409935 0.0062351576 0.61020005
0.016289335 0.0065792236 0.61057144
0.019491451 0.0064414707 0.611
0.020991864 0.0064455266 0.61133337
0.023868585 0.0063266149 0.611875
0.016513513 0.0094194077 0.611
0.018995127 0.0094194077 0.611
0.020517621 0.0094348239 0.61200005
0.023003295 0.0094348239 0.61200005
0.019026216 0.010429094 0.61200005
0.020517621 0.010429094 0.61200005
0.029063586 -0.038415264 0.61400002
0.030726118 -0.038747773 0.61400002
0.033552423 -0.038914025 0.61400002
0.035713714 -0.038747773 0.61400002
0.03804126 -0.038415264 0.61400002
0.024075991 -0.036420226 0.61400002
0.025738522 -0.036752734 0.61400002
0.028552994 -0.036904156 0.61374998
0.030783953 -0.03688933 0.6135
0.033818405 -0.036783647 0.61340004
0.036378726 -0.037085239 0.61400002
0.038540021 -0.036918987 0.61400002
0.040036298 -0.036420226 0.61400002
0.019088395 -0.033427671 0.61400002
0.021083433 -0.033926427 0.61400002
0.023717886 -0.033723883 0.61333334
0.02553062 -0.033871174 0.61300004
0.028518304 -0.034369122 0.61300004
0.031008042 -0.034369122 0.61300004
0.034194905 -0.033970766 0.61300004
0.036983408 -0.033871174 0.61300004
0.038524531 -0.033912815 0.61374998
0.040701311 -0.033760175 0.61400002
0.011607 -0.030435111 0.61400002
0.013103278 -0.030435111 0.61400002
0.016091196 -0.03142437 0.61383337
0.019072849 -0.031407848 0.6135
0.020385167 -0.031713404 0.61300004
0.023040885 -0.032377332 0.61300004
0.036983408 -0.032377332 0.61300004
0.038477249 -0.031381439 0.61300004
0.041033816 -0.031432629 0.61400002
-0.0035204925 -0.02875714 0.61366671
-0.0013607517 -0.028938834 0.61400002
0.0016318061 -0.028938834 0.61400002
0.0036268448 -0.028938834 0.61400002
0.0066194031 -0.028938834 0.61400002
0.0081156818 -0.028938834 0.61400002
0.011101938 -0.028923394 0.61366671
0.013081937 -0.02938965 0.61300004
0.015820649 -0.029140677 0.61300004
0.038643233 -0.029057687 0.61300004
0.041033819 -0.028938834 0.61400002
-0.0058400617 -0.02540607 0.61300004
-0.0041802372 -0.026733933 0.61300004
-0.0013585355 -0.027397862 0.61300004
0.0016291486 -0.026401967 0.61300004
0.0036209377 -0.026401967 0.61300004
0.0066086217 -0.026401967 0.61300004
0.0081024636 -0.026401967 0.61300004
0.0105922 -0.027397862 0.61300004
0.038975198 -0.026401967 0.61300004
0.04149916 -0.026423501 0.61350006
-0.0068359561 -0.024410175 0.61300004
-0.0048441668 -0.024410175 0.61300004
0.04149916 -0.023931732 0.6135
0.038975198 -0.020426597 0.61300004
0.04149916 -0.020941613 0.61350006
0.038975198 -0.019430703 0.61300004
0.040966988 -0.019430703 0.61300004
0.037043739 -0.014474805 0.61400002
0.034991622 -0.012459442 0.61300004
0.035048701 -0.011482248 0.61400002
0.031058624 -0.0064946515 0.61400002
0.030012148 -0.0034963898 0.61300004
0.029016253 -0.0015046007 0.61300004
0.028715843 0.0014841544 0.61366671
0.028020358 0.0034748723 0.61300004
0.025790209 0.0067145713 0.61325002
0.028066065 0.0059743389 0.61400002
0.024036778 0.0094502391 0.61300004
0.02507351 0.0094656562 0.61400002
0.023040885 0.010446134 0.61300004
0.026699608 -0.045619715 0.61700004
0.02920559 -0.045619715 0.61700004
0.030659407 -0.045545775 0.61600006
0.033161327 -0.045545775 0.61600006
0.021687642 -0.042612538 0.61700004
0.024193626 -0.043113731 0.61700004
0.026184529 -0.043090712 0.61666673
0.029158255 -0.043043856 0.61600006
0.030659407 -0.04354424 0.61600006
0.033661712 -0.04354424 0.61600006
0.036163636 -0.043043856 0.61600006
0.038165171 -0.042543471 0.61600006
0.021186447 -0.041610144 0.61700004
0.024154413 -0.041542701 0.61600006
0.025655568 -0.041542701 0.61600006
0.028611351 -0.041475262 0.61500001
0.030609637 -0.041974835 0.61500001
0.033607069 -0.041974835 0.61500001
0.03577188 -0.041808311 0.61500001
0.038634576 -0.04150898 0.61550003
0.041234307 -0.041610144 0.61700004
-0.0013674003 -0.038101766 0.61700004
0.0011385826 -0.037600569 0.61700004
0.0036445656 -0.037600569 0.61700004
0.0066517452 -0.037600569 0.61700004
0.0086565316 -0.037600569 0.61700004
0.011830777 -0.037934702 0.61700004
0.0131673 -0.038101766 0.61700004
0.016293023 -0.03846243 0.61675006
0.018503034 -0.038582649 0.61666673
0.021035396 -0.038681541 0.6162501
0.024134807 -0.0390095 0.61550003
0.025624126 -0.038993455 0.61524999
0.028444827 -0.039143931 0.61500001
0.030110065 -0.039476976 0.61500001
0.037104074 -0.039476976 0.61500001
0.038769312 -0.039143931 0.61500001
0.041134063 -0.0390095 0.61550003
0.04359768 -0.038365595 0.61640006
0.046246275 -0.037600569 0.61700004
-0.0013674003 -0.036598176 0.61700004
0.0011385826 -0.036598176 0.61700004
0.0036445656 -0.036598176 0.61700004
0.0066517452 -0.036598176 0.61700004
0.0086565316 -0.036598176 0.61700004
0.011644807 -0.036538858 0.61600006
0.01314596 -0.036538858 0.61600006
0.016148264 -0.036538858 0.61600006
0.019119482 -0.036479544 0.61500001
0.021367557 -0.036729332 0.61500001
0.024115203 -0.037478689 0.61500001
0.025114346 -0.037478689 0.61500001
0.041433696 -0.037145641 0.61500001
0.043634363 -0.036509201 0.61550003
0.046246275 -0.036598176 0.61700004
-0.0028686635 -0.034064971 0.61650002
-0.0013651841 -0.034036938 0.61600006
0.00093658344 -0.033736706 0.61600006
0.0036386584 -0.034036938 0.61600006
0.0066409642 -0.034036938 0.61600006
0.0081421174 -0.034036938 0.61600006
0.011138122 -0.034018788 0.61566669
0.01313529 -0.034009717 0.61550003
0.01612615 -0.033991028 0.61516666
0.019119482 -0.034481257 0.61500001
0.020118626 -0.034481257 0.61500001
0.042099793 -0.034481257 0.61500001
0.043741446 -0.033714604 0.61559999
0.046246275 -0.033590999 0.61700004
-0.0038608275 -0.031483825 0.61500001
-0.001362968 -0.031483825 0.61500001
0.0018009879 -0.031150779 0.61500001
0.0036327518 -0.031483825 0.61500001
0.0066301832 -0.031483825 0.61500001
0.0081288991 -0.031483825 0.61500001
0.010876546 -0.031983398 0.61500001
0.013124619 -0.032482971 0.61500001
0.043479789 -0.031183824 0.61566669
-0.0048599713 -0.029485539 0.61500001
0.043419614 -0.028782906 0.61600006
0.043169014 -0.025530407 0.61600006
0.043169014 -0.024029255 0.61600006
0.043169014 -0.021527333 0.61600006
0.042099793 -0.019494098 0.61500001
0.03822713 -0.014545529 0.61700004
0.031210378 -0.0055239908 0.61700004
0.033633985 -0.0060101338 0.61550003
0.030634928 -0.0030110774 0.61550003
0.030159023 -0.0015119642 0.61600006
0.029110922 0.0024870655 0.61500001
0.030207984 0.00049036747 0.61700004
0.029110922 0.0034862093 0.61500001
0.028840443 0.0064976979 0.61633343
0.02611349 0.0094810724 0.61500001
0.01723255 -0.04576759 0.61900002
0.018238194 -0.04576759 0.61900002
0.021243403 -0.046245765 0.61866665
0.024232836 -0.04619566 0.61800003
0.025571527 -0.046362996 0.61800003
-0.00086901156 -0.042750664 0.61900002
0.01220434 -0.042750664 0.61900002
0.013209983 -0.042750664 0.61900002
0.016417226 -0.043125294 0.61860001
0.018223461 -0.043218952 0.61849999
0.020969778 -0.043434612 0.61800003
-0.0013696165 -0.041677579 0.61800003
0.0011422733 -0.041745022 0.61900002
0.0036563794 -0.041745022 0.61900002
0.0066733067 -0.041745022 0.61900002
0.0086845914 -0.041745022 0.61900002
0.011701519 -0.041745022 0.61900002
0.013188641 -0.041677579 0.61800003
0.016200693 -0.041677579 0.61800003
0.018208729 -0.041677579 0.61800003
-0.0013696165 -0.039669544 0.61800003
0.001140428 -0.039167538 0.61800003
0.0036534257 -0.039199635 0.61849999
0.0066625252 -0.039167538 0.61800003
0.008670561 -0.039167538 0.61800003
0.011515278 -0.039334875 0.61800003
0.013188641 -0.039669544 0.61800003
0.015196676 -0.039669544 0.61800003
0.044384897 -0.039733738 0.61900002
0.046396181 -0.038225275 0.61900002
0.047325246 -0.036657494 0.61800003
0.047363535 -0.03417467 0.61849999
0.045390539 -0.030682957 0.61900002
0.044313192 -0.028123342 0.61800003
0.044384897 -0.025654744 0.61900002
0.044384897 -0.024649102 0.61900002
0.035334114 -0.0095644658 0.61900002
0.031311546 -0.0025249701 0.61900002
0.030256946 0.00149518 0.61800003
0.030305903 0.0030060629 0.61900002
0.027244892 0.0095273219 0.61800003
0.029300259 0.0075314539 0.61900002
0.0021548555 -0.048437696 0.62100005
0.013779263 -0.048010435 0.62200004
0.016969951 -0.048321545 0.62166673
0.018311854 -0.048477102 0.62150002
0.021306628 -0.048399102 0.62050003
0.023341581 -0.048437696 0.62100005
0.025822163 -0.047856063 0.62
0.0014834913 -0.046301056 0.62166673
0.0036740999 -0.045989402 0.62200004
0.0061954064 -0.046457693 0.62150002
0.0087196659 -0.046457693 0.62150002
0.011748779 -0.046457693 0.62150002
0.013756704 -0.046420317 0.62100005
0.016597619 -0.046538223 0.62033337
0.018267659 -0.046848793 0.62
0.0011450413 -0.043358706 0.62050003
0.0036652396 -0.043358706 0.62050003
0.006185438 -0.043358706 0.62050003
0.0087056356 -0.043358706 0.62050003
0.011552545 -0.043491241 0.62
0.013734957 -0.043826994 0.62
0.04848567 -0.036776125 0.62
0.047478404 -0.032747056 0.62
0.048589941 -0.03382637 0.62133336
0.047554981 -0.030782092 0.62100005
0.045537192 -0.028763225 0.62099999
0.035924185 -0.011100169 0.62050003
0.0353912 -0.0075653843 0.62
0.03438393 -0.0055508502 0.62
0.0353912 -0.006558117 0.62
0.033376664 -0.0035363161 0.62
0.031412713 -0.0015242366 0.62100005
0.031463299 0.00049434125 0.62200004
0.030379342 0.0060379915 0.62050003
0.029442266 0.0095889866 0.62200004
0.027421232 0.010599503 0.62200004
0.012302921 -0.051206108 0.62400001
0.013823569 -0.051206108 0.62400001
0.016850945 -0.051165078 0.62349999
0.018877665 -0.051165078 0.62349999
0.02142681 -0.051206108 0.62400001
0.003685914 -0.048671693 0.62400001
0.0062153433 -0.048633102 0.62349999
0.0087477267 -0.048633099 0.62349999
0.011782064 -0.048613399 0.62325001
0.013801416 -0.049099766 0.62300003
0.016331768 -0.049099766 0.62300003
0.0036800071 -0.047075484 0.62300003
0.048214205 -0.038472287 0.62300003
0.049812246 -0.037013393 0.62400001
0.049812246 -0.034478977 0.62400001
0.047708135 -0.029869089 0.62300003
0.045683853 -0.025820525 0.62300003
0.032552123 -0.0030493964 0.62349999
0.031513881 0.0015072769 0.62300003
0.031564467 0.0030303444 0.62400001
0.03050174 0.007580122 0.62300003
0.0042129545 -0.055526849 0.62700003
0.0036977278 -0.053404257 0.62600005
0.0062444364 -0.053446911 0.62650001
0.0087968316 -0.05348957 0.62700003
0.011325339 -0.053404257 0.62600005
0.013890028 -0.05348957 0.62700003
0.015417987 -0.05348957 0.62700003
0.0036947741 -0.051837709 0.62550002
0.0062352801 -0.051837709 0.62550002
0.0087757856 -0.051837709 0.62550002
0.010968783 -0.051965099 0.625
0.013845721 -0.05230356 0.625
0.016891893 -0.05230356 0.625
0.018938217 -0.052345403 0.62550002
0.022476539 -0.051288169 0.625
0.049971901 -0.033063967 0.62600005
0.048954889 -0.030520616 0.62600005
0.046920858 -0.028486587 0.62600005
0.037707392 -0.012703345 0.625
0.036300093 -0.0061228406 0.62700003
0.03273486 -0.0015389636 0.62700003
0.031665638 0.0060919132 0.62600005
0.03069758 0.0096660694 0.62700003
0.028660301 0.010684709 0.62700003
0.0059234365 -0.055985559 0.62833333
0.0088178767 -0.056170635 0.62849998
0.011026923 -0.055985559 0.62833333
0.013423392 -0.055703972 0.62900001
0.017483106 -0.053574882 0.62800002
0.050131556 -0.038270921 0.62800002
0.05115182 -0.035210129 0.62800002
0.051192544 -0.033706143 0.62849998
0.050131556 -0.031129073 0.62800002
0.036926828 -0.01074087 0.62900001
0.03794872 -0.011762759 0.62900001
0.036868121 -0.0086832652 0.62800002
0.033861164 -0.0025657611 0.62900001
0.032787066 -0.00052115414 0.62800002
0.032839276 0.0015217932 0.62900001
0.032839276 0.0025436818 0.62900001
0.031817388 0.0076531242 0.62900001
0.0093803629 -0.058023173 0.63200003
0.011415796 -0.056906223 0.63100004
0.014468245 -0.055792525 0.63000005
0.018562298 -0.053745497 0.63000005
0.052421313 -0.035378329 0.63100004
0.052421313 -0.034353193 0.63100004
0.050924331 -0.030789994 0.63150001
0.048832517 -0.028714122 0.63100004
0.04722067 -0.025087129 0.63000005
0.037102953 -0.0056582857 0.63200003
0.036019105 -0.0035990572 0.63100004
0.033968832 -0.0015487815 0.63100004
0.032891482 0.0035712388 0.63000005
0.032969795 0.0061450237 0.63150001
0.031969141 0.0087163886 0.63200003
0.029915616 0.010769913 0.63200003
0.0063100439 -0.058114983 0.63300002
0.010423592 -0.058114983 0.63300002
0.013530094 -0.057176773 0.634
0.015565529 -0.056058209 0.63300002
0.052587464 -0.033433691 0.63300002
0.05061052 -0.029366462 0.634
0.048550498 -0.026276426 0.634
0.039218433 -0.012865948 0.63300002
0.038765386 -0.011341256 0.634
0.038250379 -0.0087662265 0.634
0.038250379 -0.0067062033 0.634
0.036676817 -0.0030991228 0.63349998
0.034076497 -0.00052530342 0.63300002
0.034076497 0.0015314707 0.63300002
0.034130331 0.0025639017 0.634
0.033100318 0.0077139605 0.634
0.0073616174 -0.058298595 0.63500005
0.011524346 -0.058482219 0.63700002
0.053954661 -0.035714731 0.63700002
0.053954661 -0.034162402 0.63700002
0.051721983 -0.030444415 0.63500005
0.052836698 -0.031525623 0.63600004
0.050770175 -0.028425839 0.63600004
0.048627071 -0.025286235 0.63500005
0.048780229 -0.024330992 0.63700002
0.038371041 -0.0056940978 0.63600004
0.037396487 -0.0025983939 0.63700002
0.035243526 -0.0010431963 0.63550007
0.035326716 0.0015411483 0.63700002
0.034184162 0.003599582 0.63500005
0.034237999 0.0056717726 0.63600004
0.033256944 0.0087853465 0.63700002
0.032171477 0.010838077 0.63600004
0.051966339 -0.029551739 0.63800001
0.040628307 -0.015064171 0.63900006
0.040628307 -0.012987901 0.63900006
0.039528217 -0.010894555 0.63800001
0.039590169 -0.0088353613 0.63900006
0.039590169 -0.0067590917 0.63900006
0.038521871 -0.0031227679 0.63850003
0.037455194 -0.0015659629 0.63800001
0.037513901 -0.00053028262 0.63900006
0.035409901 0.0031011673 0.63850003
0.034345664 0.0067261183 0.63800001
0.034399495 0.0077747959 0.63900006
0.040691886 -0.011968466 0.64000005
0.039652128 -0.0057299095 0.64000005
0.037572607 0.0015484064 0.64000005
0.035548549 0.005716362 0.64100003
0.03346578 0.010923282 0.64100003
0 0 0 1 0 0 0 1 0 0 0 1 0 0 0 0 0 676 1 0 0
