ply
format ascii 1.0
comment PCL generated
element vertex 673
property float x
property float y
property float z
property uchar red
property uchar green
property uchar blue
element camera 1
property float view_px
property float view_py
property float view_pz
property float x_axisx
property float x_axisy
property float x_axisz
property float y_axisx
property float y_axisy
property float y_axisz
property float z_axisx
property float z_axisy
property float z_axisz
property float focal
property float scalex
property float scaley
property float centerx
property float centery
property int viewportx
property int viewporty
property float k1
property float k2
end_header
-0.033287451 -0.038135488 0.10066667 13 16 11
-0.032735404 -0.036146153 0.10166667 14 16 15
-0.032291263 -0.036209788 0.10200001 7 10 9
-0.03528988 -0.037257705 0.104 10 13 12
-0.033927947 -0.036620758 0.1033 12 14 11
-0.035757143 -0.037402723 0.105 9 12 11
-0.040326785 -0.038911212 0.11195239 7 14 9
-0.039503928 -0.039257783 0.1118077 8 13 11
-0.039353512 -0.039564017 0.11300001 10 13 12
0.015964761 -0.023261497 0.60900003 74 65 60
0.019427648 -0.023261497 0.60900003 85 77 77
0.020911742 -0.023261497 0.60900003 70 61 64
0.023879932 -0.023261497 0.60900003 66 57 60
0.026848121 -0.023756195 0.60900003 68 62 59
0.011512479 -0.020293308 0.60900003 67 57 48
0.014480668 -0.020788006 0.60900003 63 54 45
0.015964761 -0.020788006 0.60900003 66 57 49
0.018922316 -0.0207769 0.60866666 71 59 55
0.020894574 -0.020771345 0.6085 82 68 67
0.023867132 -0.0207769 0.60866666 89 71 71
0.026848121 -0.020788006 0.60900003 113 101 96
0.028629035 -0.020689066 0.60900003 121 109 105
0.011017781 -0.019303912 0.60900003 65 54 45
0.014480668 -0.019303912 0.60900003 67 53 45
0.015938548 -0.019272216 0.60800004 71 55 48
0.018901862 -0.019272216 0.60800004 83 66 62
0.020877406 -0.019272216 0.60800004 125 111 107
0.02384072 -0.019272216 0.60800004 106 90 87
0.026804034 -0.019272216 0.60800004 126 110 107
0.028826915 -0.019303912 0.60900003 128 117 118
0.031795103 -0.019303912 0.60900003 109 103 107
0.0070601967 -0.015841026 0.60900003 98 89 86
0.0090389885 -0.015346328 0.60900003 111 106 102
0.011017781 -0.016335724 0.60900003 88 75 68
0.014460717 -0.016313642 0.60816669 111 95 89
0.015938548 -0.0163089 0.60800004 108 92 87
0.018901862 -0.0163089 0.60800004 116 104 99
0.020877406 -0.0163089 0.60800004 112 104 99
0.02384072 -0.0163089 0.60800004 114 104 103
0.026804036 -0.0163089 0.60800004 115 106 103
0.028811676 -0.016326781 0.60866672 119 114 113
0.031795103 -0.016335724 0.60900003 120 117 121
0.0065654987 -0.014356932 0.60900003 133 129 130
0.0090389885 -0.014356932 0.60900003 127 124 121
0.011011209 -0.014349073 0.60866666 110 101 95
0.014456891 -0.014333357 0.60800004 105 89 84
0.015938548 -0.014333357 0.60800004 104 90 86
0.018901862 -0.014333357 0.60800004 110 100 98
0.020877406 -0.014333357 0.60800004 131 123 122
0.02384072 -0.014333357 0.60800004 98 87 90
0.026804034 -0.014333357 0.60800004 134 128 130
0.028811676 -0.014349073 0.60866666 130 129 130
0.031795103 -0.014356932 0.60900003 111 107 110
0.0068128477 -0.011636093 0.60900003 131 132 134
0.0090389885 -0.011388744 0.60900003 126 127 129
0.011017781 -0.011388744 0.60900003 108 98 99
0.014468644 -0.011378852 0.6085 102 89 85
0.015938548 -0.011370043 0.60800004 109 100 96
0.018901862 -0.011370043 0.60800004 114 109 108
0.020877406 -0.011370043 0.60800004 124 121 122
0.023840718 -0.011370043 0.60800004 128 127 128
0.026833424 -0.011381969 0.60866672 146 143 145
0.028826913 -0.011388744 0.60900003 106 101 104
0.031795103 -0.011388744 0.60900003 117 113 113
0.0090389885 -0.0084205559 0.60900003 133 136 139
0.011017781 -0.0084205559 0.60900003 127 127 129
0.014480668 -0.0084205559 0.60900003 110 106 109
0.015964761 -0.0084205559 0.60900003 112 111 115
0.018901862 -0.0084067285 0.60800004 109 107 109
0.020877406 -0.0084067285 0.60800004 105 101 104
0.023867404 -0.0084159477 0.60866666 114 108 112
0.026848121 -0.0084205559 0.60900003 120 116 119
0.028826913 -0.0084205559 0.60900003 105 95 100
0.0090389885 -0.0069364612 0.60900003 138 138 142
0.01121566 -0.0070354007 0.60900003 128 128 130
0.014480668 -0.0064417631 0.60900003 125 124 128
0.015964761 -0.0064417631 0.60900003 124 124 128
0.01893295 -0.0064417636 0.60900003 107 106 110
0.020911744 -0.0064417631 0.60900003 100 99 103
0.023756256 -0.0065654381 0.60900003 105 98 102
0.026848121 -0.0069364612 0.60900003 118 111 113
0.028332215 -0.0074311593 0.60900003 107 96 100
0.015964761 -0.003473575 0.60900003 130 129 133
0.01893295 -0.003473575 0.60900003 97 91 96
0.020911742 -0.003473575 0.60900003 101 95 99
0.017943554 -0.0019894808 0.60900003 129 126 127
0.0244947 -0.030335976 0.61200005 102 102 102
0.025986105 -0.030335976 0.61200005 96 93 90
0.029167771 -0.031131392 0.61200005 87 81 80
0.031951725 -0.031330246 0.61200005 83 76 77
0.033277418 -0.03099882 0.61200005 92 86 88
0.016043404 -0.028347434 0.61200005 97 95 94
0.019026216 -0.028844569 0.61200005 121 124 123
0.020509036 -0.028832991 0.61175001 119 122 121
0.02397796 -0.028821414 0.61150002 100 99 101
0.025964875 -0.028821412 0.61150002 98 96 95
0.02894525 -0.028821411 0.61150002 98 95 92
0.031951725 -0.028844569 0.61200005 76 71 74
0.033940267 -0.028844571 0.61200005 94 90 94
0.036923077 -0.028347434 0.61200005 104 100 103
0.0065978412 -0.025364624 0.61200005 66 55 48
0.0080892462 -0.026358895 0.61200005 65 53 46
0.011065755 -0.026345082 0.61166668 74 64 58
0.014043383 -0.026338173 0.61150002 74 66 63
0.016017189 -0.026315829 0.611 88 83 84
0.019475499 -0.026295103 0.61049998 109 111 112
0.020963248 -0.026295103 0.61049998 104 105 106
0.023938751 -0.026295101 0.61050004 86 84 86
0.025922414 -0.026295103 0.61049998 81 78 80
0.028906075 -0.02630201 0.61066669 77 70 70
0.031899519 -0.026315827 0.611 80 75 75
0.03391308 -0.026337633 0.61150002 85 80 82
0.036923077 -0.026358895 0.61200005 92 86 87
-0.0038419943 -0.023873221 0.61200005 61 52 47
0.0016264908 -0.023376085 0.61200005 67 57 52
0.0031178959 -0.023873221 0.61200005 67 57 52
0.0060951798 -0.023853851 0.61150002 65 55 48
0.0080760289 -0.023834212 0.611 67 53 47
0.011044919 -0.023815112 0.61050004 68 56 49
0.014504446 -0.023795202 0.61000001 70 61 54
0.016651656 -0.023960372 0.61000001 78 69 67
0.019459549 -0.024290714 0.61000001 93 89 90
0.02094608 -0.024290714 0.61000001 69 65 66
0.023919143 -0.024290716 0.61000001 72 66 68
0.028874246 -0.023795202 0.61000007 70 58 55
0.031847309 -0.023795202 0.61000001 78 65 64
0.033894323 -0.02384085 0.61116672 76 63 62
0.036923077 -0.023873221 0.61200005 78 66 64
0.040900156 -0.023873221 0.61200005 66 47 43
-0.0063276691 -0.020393275 0.61200005 58 46 44
-0.0033448595 -0.020890411 0.61200005 89 75 69
-0.0013563193 -0.020890411 0.61200005 64 53 49
0.001625162 -0.02087375 0.61150002 66 52 47
0.0031128014 -0.020856276 0.611 67 53 47
0.0060871444 -0.020845167 0.61066669 64 50 44
0.0080628106 -0.020822141 0.61000001 66 52 44
0.010788118 -0.021069897 0.61000001 64 52 43
0.029865267 -0.021317651 0.61000001 125 114 109
0.031847309 -0.020822141 0.61000001 79 68 67
0.033866864 -0.020844899 0.61066669 124 116 114
0.036923077 -0.020890411 0.61200005 96 85 84
0.040900156 -0.020890411 0.61200005 72 46 45
-0.012769525 -0.019367307 0.611 94 89 87
-0.01129902 -0.019399006 0.61200005 76 71 67
-0.0088133439 -0.019399006 0.61200005 58 47 45
-0.0063276691 -0.019399006 0.61200005 71 59 56
-0.003339394 -0.019367307 0.611 70 56 52
-0.0013541031 -0.019367307 0.611 64 49 48
0.0016238331 -0.019367307 0.611 63 49 43
0.0031128014 -0.019367307 0.611 63 49 43
0.006080769 -0.019335611 0.61000001 62 48 42
0.0080628106 -0.019335611 0.61000001 65 51 45
0.033848379 -0.019346178 0.61033332 131 129 131
0.036923077 -0.019399006 0.61200005 94 88 92
0.040900156 -0.019399006 0.61200005 71 45 45
-0.012762559 -0.016380971 0.61066669 95 90 87
-0.011274402 -0.016380971 0.61066669 69 61 58
-0.0087941438 -0.016380971 0.61066669 80 71 68
-0.0063138832 -0.016380971 0.61066669 76 66 63
-0.0033375721 -0.016380971 0.61066669 71 58 57
-0.0013533644 -0.016380971 0.61066669 64 49 50
0.0016220614 -0.016372031 0.61033338 65 51 50
0.0031077068 -0.016362548 0.61000001 74 60 59
0.0057976204 -0.016504122 0.61000007 82 70 66
0.0080628106 -0.016858058 0.61000001 75 62 57
0.033719741 -0.016493335 0.61025006 125 123 128
0.036862746 -0.017382016 0.611 151 151 155
0.037917346 -0.016416196 0.61200005 168 168 168
-0.013739647 -0.014380506 0.61000001 96 92 89
-0.011262095 -0.014380506 0.61000001 74 64 62
-0.0087845437 -0.014380506 0.61000001 109 102 97
-0.006306991 -0.014380506 0.61000001 108 102 97
-0.0033339285 -0.014380506 0.61000001 98 90 89
-0.0013518869 -0.014380506 0.61000001 92 81 85
0.0016211756 -0.014380506 0.61000001 94 83 88
0.0031077068 -0.014380506 0.61000001 150 139 143
0.0050897482 -0.014380506 0.61000001 141 138 135
0.033848379 -0.014388365 0.61033332 132 131 135
-0.013739646 -0.011407445 0.61000007 85 79 77
-0.011262094 -0.011407445 0.61000007 95 74 71
-0.0087845437 -0.011407445 0.61000007 120 102 100
-0.006306991 -0.011407445 0.61000007 136 129 128
-0.0033339283 -0.011407445 0.61000007 142 141 147
-0.0013518868 -0.011407445 0.61000007 155 157 161
0.0016211756 -0.011407445 0.61000007 137 136 140
0.0031077068 -0.011407445 0.61000001 139 139 143
0.0054861568 -0.01120924 0.61000001 119 118 123
0.033726677 -0.011538335 0.61037505 123 120 121
-0.015721688 -0.0084343823 0.61000001 63 58 56
-0.013739647 -0.0084343823 0.61000001 69 62 58
-0.011262095 -0.0084343823 0.61000001 83 61 53
-0.0087845437 -0.0084343823 0.61000001 107 83 84
-0.006306991 -0.0084343823 0.61000001 135 126 127
-0.0033339285 -0.0084343823 0.61000001 120 116 119
-0.0013518869 -0.0084343823 0.61000001 137 135 142
0.0016211756 -0.0084343823 0.61000001 142 146 151
0.0031077068 -0.0084343823 0.61000001 143 148 153
0.006080769 -0.0084343823 0.61000001 146 151 156
0.031847309 -0.0084343823 0.61000001 111 102 105
0.03283833 -0.0084343823 0.61000001 108 99 102
-0.015747461 -0.0074555636 0.611 62 57 55
-0.013416273 -0.0071165469 0.61033332 74 66 64
-0.011268248 -0.0064553251 0.61033338 96 84 79
-0.0087845428 -0.0064523406 0.61000007 110 94 94
-0.006306991 -0.0064523406 0.61000007 122 113 112
-0.0033339283 -0.0064523406 0.61000007 110 104 109
-0.0013518869 -0.0064523406 0.61000007 136 131 138
0.0016211757 -0.0064523406 0.61000007 143 145 150
0.0031077068 -0.0064523406 0.61000001 145 149 153
0.006080769 -0.0064523406 0.61000007 148 153 157
0.0080628106 -0.0054613198 0.61000001 149 155 157
0.010788117 -0.0057090754 0.61000001 146 151 151
0.024910163 -0.0054613198 0.61000001 109 103 105
0.025901185 -0.0054613198 0.61000001 110 102 101
0.029043566 -0.0061745397 0.61057144 116 110 109
0.031925622 -0.0069645299 0.61150002 115 111 112
0.032945998 -0.0074677658 0.61200005 105 99 101
-0.006306991 -0.0034792786 0.61000001 115 110 111
-0.0033339285 -0.0034792786 0.61000001 117 104 110
-0.0013525889 -0.0034821306 0.61049998 133 127 131
0.0016211756 -0.0034792786 0.61000001 110 111 115
0.0031077068 -0.0034792786 0.61000001 134 136 142
0.006080769 -0.0034792786 0.61000001 146 148 154
0.0080628106 -0.0034792786 0.61000001 154 160 160
0.011035872 -0.0034792786 0.61000001 135 140 142
0.014504446 -0.0034792786 0.61000001 140 140 144
0.023919143 -0.0034792786 0.61000001 102 93 96
0.025901185 -0.0034792786 0.61000001 100 90 90
0.028448926 -0.0034878342 0.61150002 105 97 96
-0.0058210073 -0.0024923373 0.611 112 106 108
-0.0031739529 -0.0021614553 0.611 121 113 116
-0.0013541031 -0.0019960145 0.611 134 129 132
0.0016238331 -0.0019960145 0.611 132 132 134
0.0031077068 -0.0019927477 0.61000001 136 136 138
0.006080769 -0.0019927477 0.61000007 135 135 141
0.0080628106 -0.0019927477 0.61000001 154 160 161
0.011035874 -0.0019927477 0.61000007 137 143 145
0.014504446 -0.0019927477 0.61000001 138 141 144
0.015990976 -0.0019927477 0.61000001 138 137 139
0.019459549 -0.0019927477 0.61000001 115 112 113
0.02094608 -0.0019927477 0.61000001 108 103 104
0.023925947 -0.0019931567 0.61016673 104 96 96
0.025943644 -0.0019960145 0.611 99 89 89
0.027951792 -0.0019972418 0.61150002 118 111 110
-0.0008577804 0.0004855989 0.611 124 123 125
0.001789274 0.00081648066 0.611 141 144 145
0.0031128014 0.00098192156 0.611 141 144 145
0.0062106741 0.0013536626 0.61062503 139 141 143
0.0080628106 0.0014758249 0.61000001 146 148 152
0.011035871 0.0014758249 0.61000007 143 146 148
0.014504445 0.0014758249 0.61000007 133 131 137
0.016486486 0.001475825 0.61000007 136 133 136
0.019465001 0.0014764989 0.61016673 109 103 105
0.020968972 0.0014779792 0.61066669 105 99 101
0.023962893 0.0014786936 0.61111116 101 92 95
0.025971951 0.0014803987 0.61166668 107 98 101
0.027974647 0.00048639366 0.61200005 93 84 87
0.0080760289 0.0034635349 0.611 140 140 144
0.011041361 0.003459756 0.61033332 135 136 139
0.014504446 0.0034578666 0.61000001 132 134 140
0.016500406 0.0034607006 0.61049998 124 123 127
0.019491449 0.0034635349 0.611 113 108 110
0.020980418 0.0034635349 0.611 94 88 90
0.023985038 0.0034673139 0.61166668 100 92 92
0.011252494 0.0058458834 0.611 135 138 141
0.014031899 0.0064414707 0.611 138 138 142
0.016017191 0.0064414712 0.611 118 113 118
0.019392187 0.0062429416 0.611 110 100 104
0.020757604 0.0066983518 0.61175001 98 83 88
0.023251863 0.0062034461 0.61200005 102 90 90
0.016513513 0.0094194077 0.611 107 101 103
0.019026216 0.0094348239 0.61200005 107 91 98
0.020517621 0.0094348239 0.61200005 106 91 92
0.020020485 0.010429094 0.61200005 111 96 95
0.030559864 -0.038415264 0.61400002 61 56 54
0.033718675 -0.038747773 0.61400002 94 89 92
0.035713714 -0.038747773 0.61400002 98 95 97
0.03804126 -0.038415264 0.61400002 90 81 84
0.02557227 -0.036420226 0.61400002 90 86 84
0.028731078 -0.036752734 0.61400002 87 83 80
0.031032521 -0.036888923 0.6135 84 80 81
0.033552423 -0.036918987 0.61400002 80 76 79
0.036046218 -0.036918987 0.61400002 104 102 104
0.038540021 -0.036918987 0.61400002 105 105 103
0.040966988 -0.036360912 0.61300004 78 69 72
0.019088395 -0.033427671 0.61400002 105 104 104
0.021332813 -0.033677049 0.61400002 106 106 109
0.024075991 -0.033926427 0.61400002 87 86 84
0.025551446 -0.03389921 0.6135 111 110 107
0.028529733 -0.033885192 0.61325002 74 67 69
0.031008042 -0.033871174 0.61300004 83 74 77
0.033995729 -0.033871178 0.61299998 95 89 92
0.037013575 -0.03389921 0.6135 113 112 114
0.038540021 -0.033926427 0.61400002 93 90 91
0.04149916 -0.033898801 0.6135 80 64 65
0.0081156818 -0.030435111 0.61400002 66 55 48
0.01135762 -0.030933872 0.61400002 75 65 59
0.013103278 -0.031432629 0.61400002 80 72 67
0.016086826 -0.031416107 0.61366671 103 99 100
0.019072849 -0.031407848 0.6135 116 115 116
0.020559328 -0.031394642 0.61325002 118 119 122
0.023372849 -0.031713404 0.61300004 107 110 109
0.025530621 -0.032377332 0.61300004 100 99 98
0.028020358 -0.032377332 0.61300004 86 75 79
0.034659658 -0.031713404 0.61300004 109 105 107
0.036983408 -0.031381439 0.61300004 110 107 108
0.038493145 -0.031394642 0.61325002 90 84 86
0.04149916 -0.031407036 0.61350006 75 57 56
-0.00086199207 -0.028440073 0.61400002 58 48 46
0.0016318061 -0.028440073 0.61400002 73 62 53
0.0036268448 -0.028938834 0.61400002 68 57 49
0.0066165044 -0.028927254 0.61375004 67 56 50
0.0081090722 -0.028915673 0.6135 65 51 45
0.011092891 -0.028899692 0.61316669 80 70 64
0.013081937 -0.028891703 0.61300004 97 89 86
0.016069621 -0.02938965 0.61300004 96 94 93
0.036983408 -0.02938965 0.61300004 107 103 106
0.038477249 -0.028891705 0.61300004 103 99 98
0.041321769 -0.029073665 0.6133334 72 54 53
-0.0063427724 -0.025426794 0.6135 47 44 41
-0.0035220433 -0.026112529 0.61400002 50 41 39
-0.0013607517 -0.026445035 0.61400002 68 59 54
0.0016304774 -0.026424311 0.6135 75 65 58
0.0036209379 -0.026401967 0.61300004 68 57 50
0.0066086217 -0.027397862 0.61300004 66 55 48
0.038477249 -0.026401967 0.61300004 86 76 75
0.040966988 -0.026401967 0.61300004 69 50 48
-0.0078446269 -0.023452478 0.61400002 50 47 44
-0.0063459664 -0.023941688 0.61374998 46 42 39
-0.0028523775 -0.023912229 0.61300004 78 69 64
-0.0013585355 -0.023912229 0.61300004 69 60 55
0.0016291485 -0.024410175 0.61300004 70 61 56
0.038477249 -0.023912229 0.61300004 76 63 59
-0.010819535 -0.020426597 0.61300004 79 74 70
-0.0084957806 -0.020758564 0.61300004 52 45 42
-0.0063380087 -0.021422492 0.61300004 52 45 43
0.038493145 -0.020932876 0.61325002 93 72 71
0.037979305 -0.019430703 0.61300004 113 101 101
0.041464936 -0.018932756 0.61300004 70 45 43
0.036983408 -0.015945073 0.61300004 162 167 169
0.038540021 -0.015971083 0.61400002 158 159 160
0.036983408 -0.01445123 0.61300004 153 159 161
0.034991622 -0.010467652 0.61300004 118 112 114
0.033995725 -0.0084758634 0.61300004 101 92 95
0.029016253 -0.0025004952 0.61300004 109 101 100
0.030061105 -0.003502094 0.61400002 109 108 112
0.029016253 -0.0015046007 0.61300004 122 117 115
0.028541971 0.0014838865 0.61350006 108 100 99
0.026028568 0.0034748723 0.61300004 108 100 99
0.028066065 0.0034805406 0.61400002 128 123 119
0.024036778 0.0069605033 0.61300004 100 91 89
0.025456181 0.0062697022 0.61360008 103 95 94
0.023558438 0.0094579477 0.6135 104 90 91
0.021565024 0.010454655 0.6135 101 86 86
0.028157486 -0.045545775 0.61600006 89 88 88
0.030709181 -0.045619715 0.61700004 105 105 99
0.033215165 -0.045619715 0.61700004 117 118 114
0.024193626 -0.042612538 0.61700004 79 73 75
0.025864281 -0.042946666 0.61700004 91 88 87
0.028669706 -0.043061525 0.61625004 72 63 63
0.030492613 -0.043210652 0.61600006 74 66 65
0.033661712 -0.04354424 0.61600006 95 96 98
0.035849076 -0.042900622 0.61633343 102 102 103
0.03822713 -0.042612538 0.61700004 110 113 114
0.021687642 -0.041610144 0.61700004 111 104 103
0.024193626 -0.041610144 0.61700004 73 67 69
0.025655568 -0.041542701 0.61600006 85 78 80
0.02865787 -0.041542701 0.61600006 71 63 60
0.030776164 -0.041808311 0.61500001 69 61 58
0.033607069 -0.041974835 0.61500001 75 70 70
0.036104929 -0.041475262 0.61500001 89 85 88
0.038790505 -0.041830793 0.61533338 107 108 110
0.041200079 -0.041576423 0.61650002 116 119 119
0.0011385826 -0.037600569 0.61700004 52 45 43
0.0036445656 -0.037600569 0.61700004 75 67 64
0.0066517452 -0.037600569 0.61700004 68 58 56
0.0086565316 -0.038101766 0.61700004 65 51 45
0.011663711 -0.038101766 0.61700004 64 48 41
0.0131673 -0.038101766 0.61700004 64 48 41
0.01616984 -0.038091611 0.61683339 69 54 48
0.018503034 -0.038582649 0.61666673 73 62 59
0.021167189 -0.038568746 0.61644453 112 108 109
0.024154413 -0.039040782 0.61600006 87 83 84
0.025634743 -0.0390095 0.61550003 73 68 68
0.028611349 -0.038977407 0.61500001 72 65 63
0.030609637 -0.039476976 0.61500001 64 56 53
0.033107497 -0.039476976 0.61500001 65 56 59
0.037104074 -0.039476976 0.61500001 91 90 90
0.038769312 -0.039143931 0.61500001 85 79 82
0.041117761 -0.038993452 0.61524999 88 80 85
0.043704845 -0.038572088 0.61650002 105 97 101
0.046246275 -0.037600569 0.61700004 116 111 109
-0.0013674003 -0.036598176 0.61700004 49 44 42
0.0011385826 -0.036598176 0.61700004 52 43 41
0.0036445656 -0.036598176 0.61700004 73 65 61
0.0066459486 -0.036568515 0.61650002 70 61 56
0.0086499229 -0.036568515 0.61650002 64 50 44
0.011644807 -0.036538858 0.61600006 66 51 42
0.01314596 -0.036538858 0.61600006 64 49 39
0.016148265 -0.036538858 0.61600006 76 62 54
0.01915057 -0.036538858 0.61600006 82 72 70
0.021117769 -0.036479544 0.61500001 111 110 111
0.024115203 -0.036979116 0.61500001 89 87 87
0.025613919 -0.037478689 0.61500001 80 77 76
0.028111778 -0.037478689 0.61500001 77 72 70
0.041433696 -0.037145641 0.61500001 79 68 74
0.043431986 -0.036812592 0.61500001 74 60 67
0.046709992 -0.036568515 0.61650002 101 89 89
-0.0028694391 -0.033573393 0.61666673 48 46 43
-0.0013666615 -0.033573393 0.61666673 46 41 38
0.001337629 -0.033759136 0.61640006 54 46 41
0.0036386587 -0.034036938 0.61600006 66 57 51
0.0066409642 -0.034036938 0.61600006 67 58 51
0.008476248 -0.034204278 0.61600006 66 55 48
0.011333722 -0.033904195 0.61540002 71 60 51
0.01313529 -0.034009717 0.61550003 70 59 49
0.01612615 -0.033991028 0.61516666 90 80 76
0.019119482 -0.034481257 0.61500001 108 108 104
0.020618198 -0.034481257 0.61500001 106 106 108
0.043712765 -0.033692505 0.61520004 72 51 53
0.046459395 -0.033814378 0.61650002 70 49 49
-0.0041980608 -0.031183824 0.61566669 52 50 46
-0.0013644822 -0.030509464 0.61550003 46 38 35
0.0014679398 -0.031150779 0.61500001 61 51 45
0.0036327518 -0.031483825 0.61500001 66 56 49
0.0066301832 -0.031483825 0.61500001 68 58 53
0.0081288991 -0.032482971 0.61500001 71 60 53
0.010626759 -0.032482971 0.61500001 73 64 55
0.043479789 -0.031183824 0.61566669 69 48 45
-0.0058638789 -0.029009938 0.61550003 52 48 45
-0.0038628033 -0.028997952 0.61524999 48 42 39
-0.001529492 -0.02915249 0.61500001 48 39 37
0.0016344639 -0.029485539 0.61500001 69 58 50
0.042099793 -0.028486395 0.61500001 74 51 48
0.043437131 -0.02879408 0.61625004 72 48 45
-0.0058591152 -0.02748725 0.61500001 50 45 43
-0.0048599713 -0.02748725 0.61500001 47 42 40
0.042099793 -0.026488107 0.61500001 71 45 42
0.043239094 -0.025571853 0.61700004 71 45 41
0.042099793 -0.023990246 0.61500001 65 42 37
0.043239094 -0.024068264 0.61700004 67 44 39
-0.0098556913 -0.021492386 0.61500001 55 50 46
0.042099793 -0.021492386 0.61500001 74 49 42
0.038665555 -0.019025411 0.61600006 117 106 108
0.039229523 -0.015547923 0.61700004 155 158 159
0.036222342 -0.012540743 0.61700004 115 111 116
0.03822713 -0.014545529 0.61700004 155 161 161
0.034217555 -0.0075287772 0.61700004 101 95 97
0.03110921 -0.0055060852 0.61500001 131 127 130
0.033161327 -0.0065158065 0.61600006 104 103 103
0.030159023 -0.0025127328 0.61600006 109 108 110
0.030159023 -0.0015119642 0.61600006 108 107 109
0.029110922 0.0024870655 0.61500001 124 116 113
0.030207984 0.00049036747 0.61700004 110 109 111
0.029158255 0.003491878 0.61600006 125 120 116
0.02611349 0.0074827848 0.61500001 106 97 100
0.028491618 0.0058270046 0.61600006 110 105 104
0.02565638 0.0094964895 0.61600006 100 89 91
0.0021479158 -0.047778875 0.61900002 64 68 63
0.0014774874 -0.046102803 0.61900002 66 66 63
0.021757942 -0.04576759 0.61900002 76 64 58
0.024272049 -0.04576759 0.61900002 80 70 70
0.025920354 -0.04605351 0.61833334 84 79 80
0.029252928 -0.045693651 0.61800003 92 91 91
-0.0012027483 -0.043039292 0.61833334 61 68 68
0.0011422734 -0.043253481 0.61900002 57 56 54
0.0036563794 -0.043253481 0.61900002 56 51 49
0.0071761278 -0.042750664 0.61900002 59 52 46
0.0086845914 -0.042750664 0.61900002 61 50 45
0.011701519 -0.042750664 0.61900002 63 49 44
0.013209983 -0.042750664 0.61900002 61 47 41
0.016226908 -0.042750668 0.61900002 63 49 43
0.018238194 -0.043253485 0.61900002 66 52 46
0.021231957 -0.043207172 0.61833334 81 70 68
0.024232836 -0.043685615 0.61800003 83 75 74
0.025236854 -0.043685615 0.61800003 96 88 87
-0.0013696165 -0.041677579 0.61800003 61 67 65
0.0011422733 -0.041745022 0.61900002 53 51 48
0.0036563794 -0.041745022 0.61900002 59 56 51
0.0066733067 -0.041745022 0.61900002 63 56 50
0.0086845914 -0.041745022 0.61900002 63 49 45
0.011701519 -0.041745022 0.61900002 62 48 43
0.013209983 -0.041745022 0.61900002 62 48 42
0.016217628 -0.04172254 0.61866665 63 49 43
0.018208729 -0.041677579 0.61800003 65 51 45
0.020216765 -0.041677579 0.61800003 89 79 79
-0.0013696166 -0.038665529 0.61800003 48 46 47
0.001140428 -0.039167538 0.61800003 52 46 44
0.0036504725 -0.039167538 0.61800003 75 70 67
0.0066625252 -0.039167538 0.61800003 66 59 54
0.008670561 -0.039669544 0.61800003 65 51 45
0.011682615 -0.039669544 0.61800003 63 48 42
0.013188641 -0.039669544 0.61800003 64 48 43
0.016200693 -0.039669544 0.61800003 63 48 42
0.046396181 -0.038225275 0.61900002 117 113 112
0.048407465 -0.036716811 0.61900002 116 110 112
0.047325246 -0.03364544 0.61800003 72 51 50
0.048407465 -0.034705527 0.61900002 77 60 62
0.045390539 -0.030682957 0.61900002 67 44 39
0.044313192 -0.02862535 0.61800003 70 47 42
0.042305157 -0.020593211 0.61800003 77 52 45
0.039293107 -0.018585175 0.61800003 130 121 124
0.031260964 -0.0035249083 0.61800003 136 135 139
0.030256946 0.00149518 0.61800003 118 117 117
0.030305903 0.0025032416 0.61900002 109 109 105
0.029300259 0.0065258108 0.61900002 108 102 104
0.027244892 0.0075192866 0.61800003 103 94 97
0.0035039822 -0.051351469 0.62166667 62 67 63
0.020852879 -0.051041983 0.62200004 116 112 113
0.0021548555 -0.048942141 0.62100005 75 79 72
0.0036669192 -0.048418403 0.62075007 57 57 51
0.0061983047 -0.048496399 0.62175006 63 56 52
0.0087266816 -0.048010435 0.62200004 74 60 56
0.011758231 -0.048010435 0.62200004 70 56 52
0.013779263 -0.048010435 0.62200004 67 53 49
0.016803853 -0.048496395 0.62175 70 56 50
0.018311854 -0.048477102 0.62150002 70 59 53
0.021340966 -0.048477098 0.62150002 78 68 66
0.023845214 -0.048438508 0.62100005 99 91 94
0.025359364 -0.047933251 0.62100005 101 95 97
0.0036622861 -0.046345159 0.62 54 52 48
0.0061854376 -0.046382945 0.62050003 64 57 53
0.0087126512 -0.046419911 0.62100005 67 54 50
0.011739327 -0.046419911 0.62100005 65 51 47
0.01375711 -0.046419911 0.62100005 64 50 45
0.016770272 -0.046382945 0.62050003 68 54 48
0.018282391 -0.046382941 0.62050003 68 55 49
0.021037644 -0.046596978 0.62 72 59 55
0.024311261 -0.046848793 0.62 78 67 71
0.026325796 -0.046848793 0.62 88 82 85
0.0058446988 -0.043491241 0.62 58 50 49
0.0086986218 -0.043826994 0.62 63 49 45
0.011720423 -0.043826994 0.62 62 48 43
0.013734957 -0.043826994 0.62 62 48 42
0.016756758 -0.043826994 0.62 67 51 46
0.047478404 -0.032747056 0.62 69 48 45
0.048563872 -0.033808768 0.62100005 73 53 54
0.047631558 -0.030831659 0.62200004 66 45 40
0.044456601 -0.027710723 0.62 71 48 43
0.045537196 -0.029267941 0.62100005 86 63 58
0.044528306 -0.025737636 0.62100005 73 48 41
0.044564158 -0.024243396 0.62150002 71 46 39
0.036398467 -0.011594452 0.62 96 87 94
0.0353912 -0.0095799183 0.62 108 99 102
0.033908024 -0.0060597723 0.62050003 124 122 123
0.031362131 -0.0025290491 0.62 116 115 117
0.031412713 -0.0015242366 0.62100005 116 115 117
0.031463299 0.00049434125 0.62200004 113 112 114
0.030354863 0.0035145527 0.62 122 119 116
0.030452782 0.0055469223 0.62200004 120 116 119
0.027333062 0.0095581543 0.62 104 93 97
0.029442266 0.0075679547 0.62200004 121 112 115
0.0031739364 -0.053148329 0.62300003 84 88 83
0.0041860775 -0.052136187 0.62300003 68 69 65
0.0062153433 -0.051671963 0.62349999 64 60 57
0.0087514371 -0.051692478 0.62375003 75 63 61
0.011533145 -0.051671959 0.62349999 84 71 70
0.013812493 -0.051671963 0.62349999 79 66 66
0.016851353 -0.051671959 0.62350005 88 78 76
0.018370781 -0.051671959 0.62349999 102 98 95
0.008740712 -0.049099766 0.62300003 76 62 58
0.011777135 -0.049099766 0.62300003 73 59 55
0.013801416 -0.049099766 0.62300003 73 59 55
0.049265448 -0.033944063 0.62349999 76 57 57
0.045757182 -0.027889503 0.62400001 72 49 44
0.047784716 -0.029410152 0.62400001 68 47 42
0.036574584 -0.010638413 0.62300003 90 77 83
0.035562444 -0.0076019908 0.62300003 104 98 100
0.03257823 -0.0035591309 0.62400001 138 141 142
0.031513881 0.0015072769 0.62300003 113 112 112
0.031564467 0.0025234618 0.62400001 119 119 115
0.0305507 0.0065785237 0.62400001 118 114 115
0.029489599 0.0096044037 0.62300003 112 101 105
0.027465317 0.010616545 0.62300003 105 95 95
0.0087968316 -0.055526849 0.62700003 76 67 72
0.010324791 -0.055526849 0.62700003 97 91 95
0.0041995156 -0.053318951 0.625 80 81 77
0.0062402645 -0.053404257 0.62600005 68 67 63
0.0087753795 -0.053361602 0.62550002 74 62 62
0.011325339 -0.053404257 0.62600005 81 69 71
0.013867876 -0.053404257 0.62600005 86 77 80
0.016436627 -0.05348957 0.62700003 107 105 105
0.019461457 -0.052387245 0.62600005 115 112 109
0.022476539 -0.051288169 0.625 117 116 116
0.049892075 -0.034026537 0.625 76 56 57
0.05005173 -0.033116784 0.62700003 75 54 53
0.048954885 -0.031029938 0.62600005 68 47 44
0.045830514 -0.025903417 0.625 74 49 42
0.037767723 -0.011706656 0.62600005 93 84 91
0.036750708 -0.0096726269 0.62600005 100 87 93
0.034716677 -0.0056045679 0.62600005 126 127 123
0.033727393 -0.0030648829 0.62650001 133 136 134
0.03273486 -0.0010296439 0.62700003 126 128 133
0.031665634 0.0035485646 0.62600005 124 121 118
0.03069758 0.0076287906 0.62700003 135 127 126
0.0042263926 -0.055703972 0.62900001 71 79 76
0.0057542417 -0.055659689 0.62849998 66 72 71
0.0088248914 -0.05672586 0.62900001 104 103 105
0.012381786 -0.05561541 0.62800002 113 112 114
0.013423392 -0.055703972 0.62900001 117 116 118
0.051233273 -0.034244306 0.62900001 78 62 67
0.049111292 -0.030108809 0.62800002 69 48 45
0.050211381 -0.03117864 0.62900001 73 52 49
0.03794872 -0.01074087 0.62900001 93 80 86
0.032787066 0.0015193739 0.62800002 122 121 123
0.032839276 0.0025436818 0.62900001 113 112 112
0.031766802 0.0056004296 0.62800002 136 132 135
0.030746538 0.0096814856 0.62800002 87 65 67
0.028751722 0.01071879 0.62900001 107 94 98
0.0063000754 -0.056996409 0.63200003 62 70 71
0.01090404 -0.056906223 0.63100004 117 116 116
0.014514175 -0.055969648 0.63200003 122 122 124
0.018562298 -0.053745497 0.63000005 120 119 119
0.05250439 -0.035434399 0.63200003 122 111 115
0.051396176 -0.033328053 0.63100004 80 62 68
0.05250439 -0.034407634 0.63200003 84 68 73
0.050450865 -0.030300586 0.63200003 77 56 53
0.049306795 -0.028691774 0.63050008 77 52 49
0.04722067 -0.026110644 0.63000005 76 51 44
0.046270486 -0.021026399 0.63100004 70 45 36
0.036019109 -0.0061610895 0.63100004 120 119 117
0.033968832 -0.0025739195 0.63100004 127 130 131
0.033995748 -0.0010366276 0.63150001 134 136 141
0.034022667 0.0015290513 0.63200003 124 123 125
0.032943692 0.0035769076 0.63100004 115 115 111
0.03186797 0.0066417782 0.63000005 143 139 140
0.031969141 0.007689626 0.63200003 120 112 111
0.0073500238 -0.058206785 0.634 115 121 123
0.0093952054 -0.058114983 0.63300002 126 126 126
0.015565529 -0.056058209 0.63300002 126 126 128
0.052670542 -0.033486508 0.634 87 69 75
0.051559079 -0.031376913 0.63300002 80 60 63
0.05061052 -0.029366462 0.634 86 63 60
0.047445528 -0.024178207 0.63300002 78 51 45
0.047520485 -0.02215638 0.634 76 51 44
0.03616181 -0.0030983104 0.63349998 145 149 144
0.036190353 -0.001556145 0.634 147 151 146
0.034130331 0.0025639017 0.634 115 114 114
0.033100318 0.0056539369 0.634 144 139 135
0.010456527 -0.058298595 0.63500005 130 130 130
0.013594118 -0.057447333 0.63700002 133 132 134
0.053954661 -0.034679845 0.63700002 107 101 105
0.051803436 -0.030492362 0.63600004 83 63 64
0.052919772 -0.031575188 0.63700002 90 70 73
0.05085 -0.028470533 0.63700002 88 62 58
0.048703648 -0.025841873 0.63600004 77 51 44
0.047745343 -0.021226335 0.63700002 73 48 41
0.041536029 -0.01294725 0.63700002 150 140 138
0.037396487 -0.0077728224 0.63700002 100 91 94
0.03733778 -0.0062107285 0.63600004 121 113 112
0.037396487 -0.0031158368 0.63700002 117 110 108
0.036306143 -0.0010452358 0.63600004 129 126 124
0.035271257 0.0015387288 0.63600004 120 115 111
0.034237999 0.0036052507 0.63600004 123 123 119
0.033204738 0.0067050331 0.63600004 123 111 109
0.032171477 0.0087715555 0.63600004 95 78 80
0.030104954 0.010838077 0.63600004 104 91 95
0.048856806 -0.024369188 0.63800001 82 55 49
0.038521871 -0.008827636 0.63850003 108 97 102
0.038552035 -0.0062400242 0.63900006 103 95 94
0.038552035 -0.0036446871 0.63900006 83 78 76
0.037455194 -0.00052945275 0.63800001 116 104 102
0.037513901 0.001545987 0.63900006 96 73 70
0.035382174 0.0025800779 0.63800001 115 105 103
0.034399495 0.0056985263 0.63900006 91 86 82
0.033309154 0.0077626286 0.63800001 107 88 86
0.032272644 0.010872159 0.63800001 94 70 72
0.038612369 -0.0026106313 0.64000005 93 85 82
0.038612369 -0.0010509922 0.64000005 97 86 84
0.035548549 0.0036335941 0.64100003 100 86 82
0.037631318 0.00259221 0.64100003 96 73 68
0.034507167 0.0067577465 0.64100003 95 83 81
0.03346578 0.0088405143 0.64100003 98 75 72
0 0 0 1 0 0 0 1 0 0 0 1 0 0 0 0 0 673 1 0 0
