ply
format ascii 1.0
comment PCL generated
element vertex 715
property float x
property float y
property float z
property uchar red
property uchar green
property uchar blue
element camera 1
property float view_px
property float view_py
property float view_pz
property float x_axisx
property float x_axisy
property float x_axisz
property float y_axisx
property float y_axisy
property float y_axisz
property float z_axisx
property float z_axisy
property float z_axisz
property float focal
property float scalex
property float scaley
property float centerx
property float centery
property int viewportx
property int viewporty
property float k1
property float k2
end_header
-0.028007083 0.064481661 0.014237404 79 54 45
-0.02698032 0.064481661 0.014237404 79 54 45
-0.018766221 0.067561947 0.014237404 85 57 54
-0.015712757 0.070713937 0.013237417 78 51 43
-0.014659169 0.07064224 0.014237404 78 53 44
-0.011075663 0.071705662 0.01373741 75 54 45
-0.0095424326 0.072770715 0.013237417 76 54 44
-0.0054288856 0.073799103 0.013237417 74 52 42
-0.0044004982 0.073799103 0.013237417 75 53 43
-0.0023380206 0.073722526 0.014237404 77 56 43
0.10444527 0.11171274 0.014237404 56 61 66
0.10547204 0.11171274 0.014237404 60 65 70
-0.046337679 0.062310718 0.016237378 30 25 35
-0.041766401 0.063364394 0.015737385 76 65 57
-0.039108895 0.063273899 0.017237425 80 67 56
-0.029473685 0.06541305 0.015737385 82 57 48
-0.024885349 0.065444842 0.015237391 82 60 52
-0.018686164 0.066883922 0.016737401 86 60 55
-0.013608831 0.070570529 0.015237391 79 54 45
-0.011517906 0.070427127 0.017237425 77 55 45
-0.008467692 0.072545856 0.016237378 75 56 43
-0.00027958688 0.074592881 0.016237378 78 54 42
0.002788533 0.07451468 0.017237425 78 54 42
-0.035924599 0.012221272 0.019237399 87 89 95
-0.028308779 0.01170069 0.018737406 75 64 55
-0.026801543 0.012200372 0.018237412 74 65 58
-0.046147957 0.061145313 0.018737406 50 45 51
-0.04312576 0.062193304 0.018237412 66 54 52
-0.042036433 0.062134594 0.019237399 69 58 51
-0.037961874 0.063153237 0.019237399 80 65 53
-0.018607732 0.06620916 0.019237399 94 66 63
-0.015578636 0.067294627 0.018237412 81 58 53
-0.013514534 0.069265075 0.019237399 81 59 51
-0.010458616 0.070283718 0.019237399 77 57 49
-0.0094570518 0.071375683 0.018237412 76 58 49
-0.0058808406 0.072358474 0.018737406 79 58 48
-0.033295125 0.011744114 0.02073741 27 27 35
-0.031770818 0.011744114 0.02073741 47 39 38
-0.029391147 0.01191764 0.020904085 70 57 48
-0.035805967 0.01429385 0.021237433 42 45 46
-0.033212237 0.014311501 0.02223742 83 79 74
-0.031691592 0.014311501 0.02223742 79 60 54
-0.028650297 0.014311501 0.02223742 89 67 59
-0.026622765 0.014311501 0.02223742 83 65 56
-0.024128983 0.01429385 0.021237433 86 71 65
-0.036442809 0.016334232 0.02190409 26 27 31
-0.040882919 0.028509311 0.021237433 16 22 20
-0.046035428 0.061058871 0.020237386 32 27 35
-0.04389374 0.060973249 0.021737427 47 39 41
-0.040950354 0.062075891 0.020237386 73 62 53
-0.038852133 0.06201718 0.021237433 78 65 54
-0.028213702 0.063062742 0.02073741 73 48 38
-0.026712153 0.06309291 0.020237386 76 52 40
-0.024595231 0.063986011 0.02223742 77 55 47
-0.019526403 0.064999774 0.02223742 87 70 70
-0.023661107 0.065126933 0.020237386 80 60 52
-0.017559018 0.069194995 0.020237386 79 52 46
-0.015498164 0.069124915 0.021237433 83 58 51
-0.014482775 0.069124915 0.021237433 81 59 51
-0.011416279 0.069054835 0.02223742 78 59 53
-0.0083904341 0.071155697 0.021237433 77 62 52
-0.0063596549 0.071155697 0.021237433 78 62 55
-0.0043378277 0.072246037 0.020237386 82 60 50
-0.0022980943 0.072171092 0.021237433 81 60 47
-0.00077174278 0.073109902 0.02223742 77 55 44
-0.035687335 0.016859503 0.023237407 17 20 20
-0.033143371 0.015850963 0.023487404 73 70 62
-0.031612359 0.015854564 0.023737401 79 64 54
-0.028578376 0.015854562 0.023737401 97 76 72
-0.026533373 0.015357318 0.024237394 91 69 61
-0.023514559 0.015351976 0.023904065 87 68 62
-0.036163747 0.019394618 0.023737401 14 17 17
-0.033101726 0.018388867 0.024237394 64 58 52
-0.018449245 0.018388867 0.024237394 93 84 79
-0.036638532 0.020409899 0.024237394 17 20 21
-0.038723756 0.024450559 0.023237407 18 21 20
-0.038659565 0.025462478 0.024237394 15 21 19
-0.04580874 0.059875481 0.023237407 36 31 39
-0.041220386 0.060859084 0.023737401 71 57 50
-0.037649047 0.061841063 0.024237394 79 64 52
-0.015417694 0.06588313 0.024237394 103 80 75
-0.0093716718 0.069996893 0.023237407 80 62 53
0.0027740167 0.073033318 0.023237407 76 54 46
-0.02648868 0.016382236 0.025237381 93 71 63
-0.023925819 0.016396636 0.026237428 87 66 60
-0.021425124 0.016389437 0.025737405 77 64 59
-0.033046473 0.01940891 0.025237381 64 53 47
-0.031533137 0.018904462 0.025237381 77 61 54
-0.02898653 0.018909227 0.025737405 81 63 56
-0.026924863 0.018919565 0.026737422 79 61 54
-0.023885185 0.018422322 0.027237415 76 55 49
-0.021371078 0.018422322 0.027237415 75 58 53
-0.019393116 0.018411171 0.026237428 82 71 64
-0.017348509 0.018422322 0.027237415 93 86 80
-0.037586484 0.021426693 0.025237381 18 21 20
-0.035885226 0.021092487 0.02557073 16 18 17
-0.033522882 0.020925384 0.025737405 54 44 38
-0.031970747 0.021182317 0.026487425 69 50 44
-0.028913397 0.020433607 0.027237415 79 61 51
-0.037555203 0.023949623 0.025737405 16 19 18
-0.035998188 0.023951489 0.026487425 19 18 18
-0.033438787 0.023450533 0.027237415 69 53 46
-0.038059648 0.026471039 0.025737405 15 19 18
-0.036958534 0.026467459 0.027237415 16 17 17
-0.04061316 0.029497825 0.025237381 18 24 22
-0.038499091 0.028984111 0.026737422 13 19 17
-0.040545721 0.030498372 0.026237428 16 22 20
-0.045657616 0.057746783 0.025237381 32 31 38
-0.043604486 0.05973684 0.025737405 45 37 39
-0.04148392 0.059653655 0.027237415 68 54 48
-0.03853118 0.060716383 0.026237428 79 61 52
-0.036516648 0.06172365 0.026237428 81 63 52
-0.031930316 0.061664939 0.027237415 83 58 47
-0.02896215 0.06172365 0.026237428 69 42 34
-0.026947616 0.06172365 0.026237428 68 44 32
-0.024388004 0.061664939 0.027237415 70 48 40
-0.023422182 0.063738182 0.026237428 76 56 48
-0.022414915 0.064745449 0.026237428 81 60 55
-0.018385848 0.064745449 0.026237428 108 93 92
-0.020400381 0.065752715 0.026237428 85 60 53
-0.01737858 0.065752715 0.026237428 93 67 63
-0.014381978 0.066826813 0.025237381 82 61 58
-0.013349512 0.067767255 0.026237428 82 60 52
-0.010830532 0.068271697 0.026237398 80 61 55
-0.0082977246 0.069710083 0.027237415 80 65 55
-0.0053019542 0.070862383 0.025237381 78 62 55
-0.0042751567 0.070715725 0.027237415 79 60 56
-0.0022638724 0.070715725 0.027237415 80 59 56
0.001758697 0.073732652 0.027237415 79 55 43
0.0042748246 0.073268935 0.026737422 78 54 46
-0.023844551 0.019437492 0.028237402 70 51 45
-0.021317035 0.019442255 0.028737396 71 54 47
-0.018791953 0.019447017 0.02923739 72 59 53
-0.016285969 0.019447017 0.02923739 98 90 86
-0.014281184 0.019447017 0.02923739 99 92 84
-0.028864639 0.022449544 0.028237402 78 59 46
-0.026833851 0.021447852 0.028737396 74 56 47
-0.023970984 0.021117672 0.02923739 68 49 42
-0.022300329 0.020449411 0.02923739 69 50 44
-0.033382718 0.024457579 0.028237402 66 50 43
-0.031863488 0.023955921 0.028487399 73 52 46
-0.028999472 0.023789711 0.02890406 81 62 49
-0.027312294 0.02345659 0.02923739 82 63 50
-0.035705652 0.026799129 0.028570732 34 28 23
-0.033326652 0.026463769 0.02923739 70 54 47
-0.032324258 0.025461376 0.02923739 72 53 47
-0.037022948 0.028804384 0.02890406 16 18 16
-0.040410839 0.032489721 0.028237402 18 21 20
-0.038338616 0.031976931 0.02923739 16 19 18
-0.040343404 0.033981714 0.02923739 19 19 19
-0.045430925 0.056586146 0.028237402 28 30 36
-0.044352971 0.058540344 0.02923739 30 29 36
-0.0403434 0.059542738 0.02923739 71 57 49
-0.036363482 0.061075684 0.028737396 80 62 52
-0.033382714 0.061606236 0.028237402 82 60 50
-0.021315407 0.064085305 0.028737396 81 59 58
-0.017318435 0.064618289 0.028237402 107 96 91
-0.013792584 0.065589704 0.028737396 84 64 60
-0.0092692152 0.068564281 0.02923739 80 64 59
-0.00075091474 0.071106926 0.028737396 79 57 51
0.0017571073 0.072573856 0.02923739 76 54 46
-0.013231641 0.019466072 0.031237423 88 77 70
-0.023262899 0.022458851 0.030237377 72 54 45
-0.020916125 0.021793222 0.030570725 70 53 45
-0.018727338 0.021463549 0.031237409 70 57 49
-0.01621566 0.020469168 0.031737417 78 69 65
-0.028266743 0.024460386 0.030237377 81 62 49
-0.026583897 0.024127265 0.030570725 77 60 46
-0.023733012 0.023961462 0.030987412 73 55 43
-0.02119777 0.023963679 0.031987414 73 56 45
-0.019193182 0.023465676 0.032237411 69 56 43
-0.031602636 0.026795512 0.030237377 76 59 51
-0.028742749 0.026460189 0.0307374 75 60 50
-0.026708908 0.026708186 0.031487405 75 60 48
-0.023848271 0.02679074 0.032237411 74 56 46
-0.03560571 0.02913064 0.030237377 44 36 31
-0.03324255 0.028960485 0.0307374 85 73 66
-0.031702597 0.028956257 0.03148742 90 77 70
-0.02885239 0.028787477 0.031904083 89 76 68
-0.027173335 0.028453272 0.032237411 76 61 51
-0.036222644 0.031956762 0.031070739 49 43 41
-0.03318648 0.031949572 0.031737417 110 102 99
-0.031828422 0.031778336 0.032237411 96 90 84
-0.038274426 0.0334673 0.030237377 18 18 18
-0.036151003 0.033440866 0.032237411 54 45 42
-0.040708095 0.036951087 0.031237423 20 20 22
-0.038146045 0.035435904 0.032237411 18 17 17
-0.037148524 0.035435908 0.032237411 42 35 29
-0.045279805 0.055484205 0.030237377 28 30 36
-0.044279035 0.056484975 0.030237377 24 26 32
-0.041742578 0.058459591 0.0307374 55 42 38
-0.038210232 0.059431821 0.031237423 74 56 47
-0.035682715 0.060402423 0.031737417 81 61 51
-0.029217942 0.062429257 0.031237423 78 51 43
-0.026175814 0.060373887 0.032237411 71 47 35
-0.024180776 0.060373887 0.032237411 69 43 39
-0.020225646 0.063428402 0.031237423 90 68 70
-0.016227445 0.063928783 0.031237394 140 127 124
-0.014230781 0.064427547 0.031237423 138 121 123
0.011763996 0.063490354 0.030237377 101 84 86
-0.010723617 0.066393226 0.031737417 90 74 69
-0.006240617 0.069114655 0.030904055 78 63 58
-0.004239345 0.069423266 0.031237423 79 60 56
-0.0012378345 0.069351561 0.032237411 75 55 52
0.0017547229 0.069351561 0.032237411 90 71 69
0.003749761 0.069351561 0.032237411 90 69 68
0.0067512365 0.069423266 0.031237423 90 69 66
0.0080793733 0.06906686 0.031570733 98 82 79
0.0017555177 0.071421556 0.031237423 78 56 48
0.0037543469 0.071755141 0.031237403 77 55 47
-0.011172378 0.019494653 0.034237385 79 65 59
-0.016158763 0.022475136 0.033737391 68 61 53
-0.013823763 0.021814616 0.034237385 77 67 60
-0.018485364 0.024133101 0.033570725 71 58 46
-0.017137997 0.023471734 0.034237385 68 55 44
-0.023143437 0.027452283 0.033237398 75 57 48
-0.021142913 0.026953468 0.033487394 73 55 47
-0.019126536 0.026454544 0.034237385 72 57 45
-0.028122911 0.029444071 0.033237398 124 116 113
-0.02646309 0.029112106 0.033237398 80 68 65
-0.023641385 0.028448178 0.033237398 80 62 53
-0.022109346 0.028443083 0.034237385 88 69 63
-0.031110592 0.032431755 0.033237398 90 86 79
-0.028608872 0.031930909 0.033487394 103 99 96
-0.026749274 0.031757314 0.034237385 125 123 118
-0.023766464 0.030763045 0.034237385 93 81 80
-0.033102382 0.033427648 0.033237398 94 84 82
-0.031608541 0.033427648 0.033237398 105 91 90
-0.028572101 0.033414431 0.034237385 99 92 91
-0.040073644 0.037411228 0.033237398 19 19 23
-0.038081855 0.036913279 0.033237398 23 20 19
-0.035935313 0.036530167 0.033737391 60 47 41
-0.033074349 0.035908341 0.033737391 81 70 63
-0.03172062 0.035734396 0.034237385 83 73 69
-0.040006205 0.039380051 0.034237385 92 87 83
-0.038017664 0.039380051 0.034237385 75 67 64
-0.037023395 0.039380051 0.034237385 69 59 57
-0.041000474 0.04037432 0.034237385 94 86 83
-0.043983284 0.055288371 0.034237385 24 26 32
-0.041532949 0.057303011 0.033737391 51 38 35
-0.040073641 0.058325015 0.033237398 67 48 44
-0.03801766 0.058271177 0.034237385 69 48 43
-0.037085958 0.059320904 0.033237398 78 60 51
-0.033102378 0.060316801 0.033237398 83 58 49
-0.031582128 0.060288258 0.033737391 80 53 45
-0.029069236 0.060259722 0.034237385 71 44 36
-0.023143435 0.060316809 0.033237398 74 55 53
-0.017137995 0.06224826 0.034237385 123 117 121
-0.018661909 0.063304491 0.033237398 112 96 96
-0.015176279 0.063304491 0.033237398 128 113 112
-0.013669837 0.063771456 0.033737391 124 108 109
-0.0091838343 0.067219615 0.034237385 86 70 65
0.0087130228 0.067219615 0.034237385 117 110 104
-0.0057038912 0.06821388 0.034237385 76 65 65
0.0067244824 0.06821388 0.034237385 116 106 106
0.0087130228 0.06821388 0.034237385 115 108 102
0.0037457175 0.071271643 0.033237398 78 56 48
-0.010140706 0.019513708 0.036237419 76 62 56
-0.0091326088 0.019523235 0.037237406 69 58 51
-0.0071538179 0.019523235 0.037237406 68 57 50
-0.013137342 0.022482116 0.035237432 74 63 56
-0.010636622 0.021990854 0.036237419 75 61 55
-0.0091326088 0.021996725 0.037237406 70 59 50
-0.0071538179 0.021502027 0.037237406 82 68 60
-0.015453515 0.024136527 0.035237432 68 58 46
-0.013615578 0.023972543 0.035987422 75 64 55
-0.010788377 0.02380961 0.036904078 78 62 57
-0.018431449 0.02711446 0.035237432 74 56 50
-0.015598431 0.026946824 0.035987422 76 64 58
-0.013591191 0.026944166 0.036987409 77 66 58
-0.011111401 0.026449008 0.037237406 73 59 51
-0.02008586 0.028437989 0.035237432 89 70 66
-0.018581044 0.028435443 0.035737425 87 68 64
-0.015577907 0.028430346 0.036737412 93 79 78
-0.014079589 0.028427798 0.037237406 84 73 66
-0.026041733 0.032408569 0.035237432 124 124 120
-0.023381405 0.032073822 0.035570759 115 108 111
-0.021054665 0.031408466 0.035904091 103 95 97
-0.01865048 0.031203439 0.036637414 107 97 101
-0.015728584 0.030736389 0.037237406 98 90 89
-0.026538055 0.033401214 0.035237432 113 110 107
-0.023519486 0.033387996 0.036237419 130 129 127
-0.021005362 0.034364175 0.037237406 122 124 125
-0.032990251 0.037371796 0.035237432 73 62 53
-0.031335838 0.037040915 0.035237432 82 71 66
-0.028499106 0.036369562 0.035737425 98 88 86
-0.026469929 0.036351472 0.036737412 109 103 103
-0.023657566 0.035688858 0.036904078 119 119 117
-0.021994758 0.035353571 0.037237406 129 129 131
-0.035968184 0.039357085 0.035237432 74 64 62
-0.033982895 0.039357085 0.035237432 72 62 61
-0.031447649 0.039334118 0.036237419 102 93 91
-0.028450619 0.039322637 0.036737412 91 79 78
-0.040896878 0.04182478 0.035737425 92 87 83
-0.039131161 0.04113828 0.035437427 81 75 71
-0.03643363 0.040832944 0.035737425 98 91 88
-0.033925202 0.040820651 0.036237419 95 88 87
-0.031407632 0.040801398 0.036987409 101 92 91
-0.028920533 0.040300552 0.037237406 86 74 72
-0.04135786 0.044289224 0.036237419 91 86 84
-0.038507175 0.043938696 0.036904078 85 79 73
-0.036341004 0.043763436 0.037237406 108 104 100
-0.033867512 0.043763436 0.037237406 117 113 115
-0.03188872 0.04326874 0.037237406 82 73 78
-0.04132292 0.045758583 0.036737412 90 88 81
-0.038814493 0.045742229 0.037237406 85 76 70
-0.036505904 0.045577329 0.037237406 110 106 102
-0.041287981 0.048710417 0.037237406 26 20 20
-0.038814493 0.048710417 0.037237406 63 49 43
-0.043798439 0.051204324 0.036737412 23 24 33
-0.041287981 0.051183909 0.037237406 39 33 34
-0.039803889 0.051183909 0.037237406 54 43 35
-0.044190396 0.053554531 0.035904091 23 26 33
-0.041340593 0.053692494 0.036487415 43 33 29
-0.039144292 0.053822298 0.037237406 59 41 34
-0.041393202 0.055214934 0.035737425 47 35 32
-0.038881116 0.056182284 0.036237419 62 42 36
-0.036340997 0.057120286 0.037237406 64 43 38
-0.036237579 0.058494389 0.036237419 73 52 45
-0.034235764 0.058806252 0.036570746 72 51 42
-0.03139402 0.059099078 0.037237406 73 46 38
-0.028920531 0.059099078 0.037237406 70 43 35
-0.028027022 0.060202643 0.035237432 67 40 32
-0.026988056 0.060145557 0.036237419 66 42 30
-0.021041932 0.061135769 0.036237419 106 98 100
-0.018580636 0.061166745 0.035737425 154 157 159
-0.015591318 0.061136577 0.036237419 102 91 96
-0.013597489 0.062097434 0.036737412 101 86 89
0.011326271 0.061446805 0.036570746 113 103 107
-0.013113766 0.063118622 0.036237419 128 113 114
-0.010795151 0.063758649 0.036570746 120 109 108
0.0086765215 0.064046063 0.037237406 118 102 107
0.010655313 0.063551366 0.037237406 103 85 91
-0.010159404 0.066158511 0.035237432 85 74 69
-0.0091496827 0.066091679 0.036237419 82 74 71
-0.0064152246 0.066784009 0.036987409 101 92 92
-0.0041856272 0.067014247 0.037237406 108 97 101
-0.001217439 0.067014247 0.037237406 125 117 116
0.001750749 0.067014247 0.037237406 135 132 129
0.0037295411 0.067014247 0.037237406 131 122 123
0.0067066466 0.067082703 0.036237419 114 104 104
0.0080280071 0.066422559 0.036237419 109 99 97
-0.0042035333 0.0681438 0.035237432 74 63 67
-0.0012247792 0.068120442 0.035570759 115 107 106
0.0017515438 0.06807372 0.036237419 146 143 140
0.0037376292 0.0681438 0.035237432 137 129 129
-0.0056583341 0.019532762 0.038237393 66 55 47
-0.0041766772 0.019532762 0.038237393 68 54 46
-0.0059546651 0.022100966 0.038237393 85 71 63
-0.0041677239 0.021514583 0.03923738 85 69 62
-0.0012092837 0.021514585 0.03923738 79 64 55
0.0017491567 0.021514583 0.03923738 73 59 53
0.0027353035 0.021514583 0.03923738 77 63 57
-0.009115533 0.023483848 0.038237393 77 61 54
-0.0061486936 0.023484858 0.038570721 78 64 55
-0.0041677239 0.022993803 0.03923738 99 84 75
-0.0014065129 0.022895189 0.03923738 87 73 63
0.0086521842 0.022500731 0.03923738 88 81 75
0.011117551 0.022993803 0.03923738 105 99 99
0.013089845 0.023486877 0.03923738 106 88 92
0.015555212 0.023486877 0.03923738 100 76 78
-0.010350247 0.026694104 0.038237393 73 59 51
-0.009115533 0.026447162 0.038237393 73 58 51
-0.0062650139 0.026322074 0.039112382 76 62 53
-0.0041677239 0.025952242 0.03923738 86 73 62
-0.0021954305 0.02545917 0.03923738 78 65 54
0.011610624 0.02545917 0.03923738 154 152 144
0.013188461 0.026248088 0.03923738 128 109 112
0.016048284 0.026445316 0.03923738 99 63 66
0.017527504 0.026938392 0.03923738 96 61 64
-0.013066619 0.028422704 0.038237393 78 67 58
-0.01059719 0.028422706 0.038237393 73 59 51
-0.0090984572 0.02841761 0.03923738 72 58 50
-0.0071261642 0.02841761 0.03923738 76 63 52
0.017527504 0.028417611 0.03923738 102 69 72
-0.018005477 0.03237379 0.038237393 125 119 125
-0.015371419 0.03204453 0.038237393 94 88 90
-0.013548448 0.031380493 0.038737386 100 94 90
-0.01074881 0.030721402 0.038904052 92 80 72
-0.0090984572 0.030389905 0.03923738 84 70 62
0.016541358 0.030389905 0.03923738 123 113 113
0.017527504 0.031376053 0.03923738 118 108 110
-0.018499363 0.034349333 0.038237393 128 128 132
-0.015508411 0.034334492 0.03923738 116 114 117
-0.014029191 0.034334492 0.03923738 72 68 69
0.017527504 0.034334492 0.03923738 116 103 107
-0.023273589 0.036983389 0.038237393 129 127 129
-0.021937463 0.036808904 0.038737386 133 133 135
-0.019110557 0.03602973 0.038951669 132 137 140
-0.016001485 0.03532064 0.03923738 143 146 149
-0.026401535 0.039288189 0.038237393 108 98 101
-0.023397587 0.039265223 0.03923738 123 120 122
-0.028212449 0.040934477 0.038237393 91 81 82
-0.026367605 0.040750593 0.038987383 95 85 88
-0.023890659 0.040251371 0.03923738 99 95 96
-0.031175762 0.043897789 0.038237393 101 92 97
-0.02834071 0.043710247 0.038987383 102 96 94
-0.026849097 0.043209814 0.03923738 107 102 100
-0.035785362 0.046202593 0.038237393 122 119 116
-0.033809818 0.045708705 0.038237393 123 120 122
-0.031300366 0.045683358 0.038987383 123 119 121
-0.02882139 0.045182105 0.03923738 119 116 113
-0.036279246 0.04867202 0.038237393 87 73 70
-0.033781782 0.04865282 0.038737386 110 98 99
-0.031451117 0.048469264 0.03923738 111 101 101
-0.037760902 0.051141448 0.038237393 65 47 38
-0.036279246 0.051141448 0.038237393 72 52 45
-0.033752125 0.051098987 0.03923738 75 56 52
-0.031779829 0.051098987 0.03923738 93 77 75
-0.037760902 0.053116992 0.038237393 63 43 35
-0.036279246 0.053610876 0.038237393 60 40 32
-0.033752125 0.053564355 0.03923738 64 44 36
-0.031779829 0.053564355 0.03923738 69 49 41
0.012596774 0.054057427 0.03923738 150 150 150
-0.036279246 0.055092536 0.038237393 59 39 31
-0.033795796 0.056068063 0.03848739 66 45 37
-0.031286754 0.056029722 0.03923738 71 46 38
-0.02882139 0.057015866 0.03923738 68 41 35
0.011117553 0.056029722 0.03923738 132 126 126
0.012596774 0.055043574 0.03923738 127 126 126
-0.032822043 0.058055848 0.038237393 69 47 39
-0.031313978 0.058028929 0.038737386 71 45 38
-0.028179942 0.058349211 0.038904052 66 40 33
-0.026367605 0.058508947 0.038987383 70 47 36
-0.023397584 0.058988161 0.03923738 75 52 49
-0.021918364 0.058988161 0.03923738 130 122 121
-0.018959925 0.058988165 0.03923738 159 163 165
-0.01550841 0.058988161 0.03923738 147 141 144
-0.013536116 0.058988161 0.03923738 136 130 132
0.0083234701 0.058659445 0.03923738 111 100 98
0.011121813 0.058508947 0.038987383 132 124 125
-0.022944331 0.06101916 0.038237393 74 53 50
-0.015042159 0.06101916 0.038237393 100 84 89
-0.013560503 0.06101916 0.038237393 99 84 87
-0.010582757 0.061468612 0.038987383 111 102 101
-0.0090984553 0.061946601 0.03923738 119 114 112
-0.0071261623 0.061946601 0.03923738 149 145 146
0.0043788836 0.061617885 0.03923738 103 96 93
0.006679893 0.061453529 0.03923738 105 94 89
0.0081651965 0.06148329 0.038737386 104 91 89
0.010639897 0.06101916 0.038237393 103 92 96
-0.010103303 0.062994704 0.038237393 137 127 125
-0.0091069937 0.063457608 0.038737386 142 134 133
-0.0061423196 0.063436419 0.039070714 143 144 145
-0.0041677216 0.063918896 0.03923738 131 131 135
-0.0012092812 0.063918896 0.03923738 116 114 119
0.0017491593 0.063425824 0.03923738 135 131 134
0.0037223974 0.063436419 0.039070714 122 115 119
0.0066843517 0.063457608 0.038737386 105 95 95
0.0080058398 0.06332396 0.038237393 105 92 94
-0.0056583313 0.065958023 0.038237393 141 141 141
-0.0041766744 0.065958023 0.038237393 122 118 121
-0.001209281 0.065891191 0.03923738 113 108 113
0.0017499542 0.065958023 0.038237393 129 128 130
0.0037254971 0.065958023 0.038237393 112 107 110
0.0066888109 0.065958023 0.038237393 109 98 102
0.0037174062 0.02152086 0.040237427 76 62 54
-0.00022068224 0.023489906 0.040237427 79 65 57
0.0017483621 0.022997644 0.040237427 85 71 64
0.0037174064 0.022997646 0.040237427 96 83 76
0.0066709723 0.022997644 0.040237427 86 72 67
0.0079836687 0.023161732 0.040237427 87 77 71
0.01255944 0.022510037 0.041237414 96 88 87
0.016491029 0.023492934 0.041237414 100 76 78
-0.0051432932 0.027427994 0.040237427 76 63 52
-0.0041587711 0.027427994 0.040237427 78 63 53
-0.0010821389 0.026566535 0.040237427 74 60 49
0.0017483622 0.026443472 0.040237427 69 54 46
0.0037166881 0.026442703 0.040459648 67 54 47
0.0066709723 0.026443472 0.040237427 69 55 50
0.0081477556 0.026443472 0.040237427 88 78 75
0.01100287 0.026640376 0.040237427 143 142 137
0.012578106 0.027427996 0.040237427 133 134 130
-0.005635554 0.028412515 0.040237427 75 62 52
-0.0041498174 0.029390318 0.041237414 75 62 51
-0.0012011247 0.02939032 0.041237414 70 55 44
0.0017475677 0.02939032 0.041237414 69 53 46
0.0037133626 0.02939032 0.041237414 65 50 44
0.0066620554 0.02939032 0.041237414 97 82 83
0.0081364019 0.02939032 0.041237414 123 119 117
0.011085094 0.02939032 0.041237414 130 130 132
0.013050889 0.02939032 0.041237414 123 124 122
0.015999582 0.02939032 0.041237414 123 114 114
-0.010394077 0.032022431 0.040237427 84 71 65
-0.0090728439 0.031852547 0.04073742 82 66 59
-0.0061225723 0.031361111 0.040681865 74 61 50
-0.0041528018 0.031358894 0.040904086 74 60 49
-0.0012011247 0.031356115 0.041237414 68 53 42
0.0017475678 0.031356115 0.041237414 68 52 45
0.0037133631 0.031356115 0.041237414 84 70 65
0.0066620554 0.031356115 0.041237414 129 121 125
0.0081384294 0.031357508 0.041070748 152 154 153
0.011098753 0.031364154 0.040404093 136 137 139
0.013070367 0.031366084 0.040237427 117 117 117
0.015925482 0.031562991 0.040237427 119 111 110
-0.01301947 0.034319647 0.040237427 75 69 71
-0.010548813 0.034312226 0.04073742 79 67 62
-0.0090643046 0.034304805 0.041237414 78 62 55
-0.0061156121 0.034304805 0.041237414 71 56 46
-0.0041408641 0.034289964 0.042237401 72 57 47
-0.0011970456 0.034289964 0.042237401 74 58 50
0.0017467733 0.034289964 0.042237401 120 103 103
0.0037125566 0.034299858 0.041570742 143 138 134
0.0066620554 0.034304805 0.041237414 140 139 141
0.0081364019 0.034304805 0.041237414 141 142 144
0.011093616 0.03431223 0.04073742 146 147 148
0.013070367 0.03431965 0.040237427 126 121 126
0.016023934 0.03431965 0.040237427 122 107 114
-0.018434342 0.037273217 0.040237427 131 136 138
-0.015973037 0.036288694 0.040237427 137 140 143
-0.013995863 0.035790402 0.040570755 119 112 116
-0.010533975 0.03577463 0.041487411 83 69 66
-0.0090557663 0.035770107 0.041737407 77 61 56
-0.0061034099 0.035761874 0.042237401 79 65 56
-0.0041408641 0.035761874 0.042237401 74 61 50
-0.0011970453 0.035761874 0.042237401 90 74 69
0.0017467733 0.035761874 0.042237401 142 136 138
0.0037102641 0.03576462 0.042070735 124 124 126
0.0066620554 0.035779156 0.041237414 146 146 148
0.0081364019 0.035779156 0.041237414 146 148 150
0.011085095 0.035779156 0.041237414 145 147 148
0.013067257 0.03628568 0.040404093 139 139 142
0.016023934 0.036288694 0.040237427 129 120 125
-0.02188017 0.03924226 0.040237427 124 123 127
-0.018916039 0.039234605 0.040570755 111 111 115
-0.015944589 0.038727846 0.041237414 125 125 128
-0.013970663 0.038720191 0.041570742 114 112 109
-0.010519138 0.038705692 0.042237401 78 64 59
-0.0090472279 0.038705692 0.042237401 78 62 55
-0.0063487282 0.038460374 0.042237401 79 63 55
-0.0041408637 0.038215056 0.042237401 85 67 58
-0.0011970452 0.038705695 0.042237401 125 113 107
0.0017467735 0.038705692 0.042237401 155 153 150
0.0037093193 0.038705692 0.042237401 134 135 138
0.0066575967 0.038716365 0.041737407 152 158 160
0.0081364019 0.03872785 0.041237414 151 156 158
0.011085095 0.038727846 0.041237414 146 149 150
0.01305089 0.039219297 0.041237414 118 118 120
0.015508134 0.039219297 0.041237414 142 142 144
-0.023192866 0.040883128 0.040237427 108 104 104
-0.021861071 0.040705934 0.04073742 111 110 112
-0.018887997 0.040689271 0.04140408 110 108 112
-0.015930364 0.040680535 0.041737407 100 95 99
-0.014149847 0.04057011 0.042237401 77 70 71
-0.011009774 0.040177602 0.042237401 77 63 57
-0.00021577219 0.040668242 0.042237401 96 84 81
0.0017467735 0.040668242 0.042237401 108 101 102
0.0037093193 0.040668245 0.042237401 122 121 123
0.006653138 0.040668242 0.042237401 154 160 163
0.0081364019 0.040693641 0.041237414 152 159 160
0.011085095 0.040693641 0.041237414 132 137 138
0.01305089 0.040693641 0.041237414 134 135 137
0.015508134 0.040693641 0.041237414 141 143 145
-0.02680278 0.04416487 0.040237427 97 92 90
-0.023829034 0.043657333 0.04073742 109 103 101
-0.021841971 0.043642335 0.041237414 88 82 84
-0.018865779 0.043616965 0.042070735 85 75 78
-0.015916139 0.043612055 0.042237401 78 66 66
-0.014934865 0.04312142 0.042237401 78 63 62
-0.00021577196 0.044102695 0.042237401 125 110 109
0.0017467737 0.043612055 0.042237401 124 119 117
0.0037093197 0.043612059 0.042237401 131 132 134
0.006653138 0.043612055 0.042237401 151 156 161
0.0081337662 0.04363497 0.041487411 157 164 167
0.011085095 0.043642335 0.041237414 141 144 147
0.01305089 0.043642335 0.041237414 129 132 133
-0.028115476 0.046462089 0.040237427 116 113 115
-0.026779618 0.046115935 0.04073742 107 101 101
-0.023801127 0.046093583 0.04140408 100 97 95
-0.021803776 0.046065241 0.042237401 83 76 78
-0.019056212 0.045868985 0.042237401 78 64 65
-0.00054286281 0.046392333 0.042237401 117 113 115
0.001746774 0.046065241 0.042237401 119 115 115
0.00370932 0.046065241 0.042237401 138 138 140
0.0066575976 0.046083223 0.041737407 150 151 155
0.0081364028 0.046099577 0.041237414 147 147 150
0.011085095 0.046099581 0.041237414 151 155 156
0.01305089 0.046099581 0.041237414 140 143 146
-0.030740868 0.04908748 0.040237427 105 94 98
-0.028279562 0.04859522 0.040237427 115 112 114
-0.026756458 0.04855682 0.041237414 115 108 109
-0.023794495 0.048544019 0.041570742 96 89 87
-0.021803776 0.049009059 0.042237401 85 73 70
-0.018982615 0.049131718 0.042237401 104 89 87
-0.015916139 0.049990334 0.042237401 132 117 116
-0.013953592 0.049990337 0.042237401 112 100 97
-0.010519137 0.049990334 0.042237401 105 98 97
-0.009047227 0.049990334 0.042237401 103 93 93
-0.0061034095 0.049990337 0.042237401 146 140 140
-0.0041408632 0.049499698 0.042237401 131 127 130
-0.0011970446 0.049009059 0.042237401 113 110 113
0.0017467741 0.049009066 0.042237401 126 122 124
0.0037118832 0.048537761 0.041737407 140 140 142
0.0066620563 0.04855682 0.041237414 146 149 152
0.0081364028 0.04855682 0.041237414 139 139 142
0.011085095 0.04855682 0.041237414 151 154 154
0.012900059 0.048418608 0.040570755 141 144 147
-0.030740868 0.051056527 0.040237427 99 88 89
-0.028279563 0.051056527 0.040237427 106 99 102
-0.026756458 0.051014066 0.041237414 103 97 95
-0.023807766 0.051014066 0.041237414 84 72 71
-0.021803776 0.051952876 0.042237401 87 70 70
-0.018859955 0.05195288 0.042237401 124 112 111
-0.015916139 0.051952876 0.042237401 142 132 130
-0.013953592 0.05195288 0.042237401 143 135 135
-0.010519137 0.05195288 0.042237401 148 140 143
-0.009047227 0.05195288 0.042237401 115 106 111
-0.0061034095 0.05195288 0.042237401 136 135 136
-0.0041408632 0.05195288 0.042237401 119 115 118
-0.0011970444 0.05195288 0.042237401 106 102 102
0.0017467743 0.05195288 0.042237401 98 92 94
0.003713364 0.051014066 0.041237414 121 120 123
0.0066620563 0.051014066 0.041237414 141 144 146
0.0081394445 0.051025089 0.040987417 142 143 146
0.01109747 0.051046319 0.040487424 143 145 148
0.012578107 0.051056527 0.040237427 142 144 147
-0.030740868 0.053517833 0.040237427 69 47 37
-0.028279562 0.053517833 0.040237427 74 54 49
-0.02680278 0.053517833 0.040237427 76 60 55
-0.023807766 0.053471301 0.041237414 87 69 65
-0.021841971 0.053471304 0.041237414 137 123 119
-0.018882442 0.053456072 0.041570742 140 134 135
-0.015930362 0.053448454 0.041737407 127 119 118
-0.013962264 0.053440567 0.041904073 121 115 118
-0.010519137 0.053424791 0.042237401 130 130 129
-0.009047227 0.053424791 0.042237401 128 127 129
-0.0061034095 0.053424794 0.042237401 132 132 128
-0.0041408627 0.053424791 0.042237401 113 105 104
-0.0011974535 0.053432684 0.042070735 108 101 100
0.0017475691 0.053471312 0.041237414 109 104 102
0.003713364 0.053471312 0.041237414 131 130 126
0.0066620568 0.053471312 0.041237414 134 134 134
0.0081451219 0.053506404 0.040487424 138 138 138
0.011101325 0.053517833 0.040237427 146 148 147
0.012578107 0.053025573 0.040237427 151 151 151
-0.028115476 0.056307316 0.040237427 65 40 35
-0.02680278 0.0564714 0.040237427 67 45 38
-0.023842575 0.05646297 0.040404093 84 61 56
-0.021861069 0.056446105 0.04073742 122 109 107
-0.01890994 0.056446105 0.04073742 157 157 159
-0.015958812 0.056446105 0.04073742 142 138 145
-0.013983262 0.056428704 0.041070748 131 127 132
-0.01053865 0.056419998 0.041237414 118 113 114
-0.0090643037 0.056419998 0.041237414 102 95 97
-0.0061156112 0.056420002 0.041237414 119 115 112
-0.004149816 0.056419998 0.041237414 115 109 105
-0.0012011231 0.056419998 0.041237414 106 100 99
0.0017475693 0.056419998 0.041237414 111 106 104
0.0037143091 0.056428704 0.041070748 109 104 103
0.0066709742 0.0564714 0.040237427 120 113 112
0.0081477584 0.0564714 0.040237427 129 124 121
-0.023356952 0.05794818 0.040237427 83 62 59
-0.021880168 0.05794818 0.040237427 143 133 133
-0.0189266 0.057948183 0.040237427 169 172 175
-0.015973035 0.05794818 0.040237427 155 155 159
-0.014003989 0.057948183 0.040237427 131 129 133
-0.010558162 0.058440439 0.040237427 112 107 106
-0.0090813795 0.058440443 0.040237427 113 108 105
-0.0061217123 0.058413524 0.04073742 117 110 110
-0.0041542929 0.058413528 0.04073742 108 99 100
-0.0012031627 0.058413524 0.04073742 103 97 98
0.0017479667 0.058413528 0.04073742 107 102 100
0.0037174083 0.058440443 0.040237427 102 96 94
0.0066709742 0.058440443 0.040237427 101 90 89
0.0076554967 0.05794818 0.040237427 110 100 98
-0.0090813795 0.060901746 0.040237427 111 106 104
-0.0059309085 0.061295558 0.040237427 138 136 139
-0.0041587688 0.06139401 0.040237427 120 116 121
-0.0012052023 0.061394006 0.040237427 108 106 110
0.0017483644 0.06139401 0.040237427 108 103 101
0.0030610606 0.061229926 0.040237427 109 104 101
-0.0041587688 0.062870793 0.040237427 121 121 125
-0.0012052021 0.062870793 0.040237427 122 120 125
-0.0056013833 0.039173365 0.043237388 90 73 67
-0.0041319109 0.039173365 0.043237388 122 106 103
-0.012948746 0.041132659 0.043237388 82 67 68
-0.01033635 0.040806111 0.043237388 81 64 60
-0.0090301512 0.040642835 0.043237388 86 67 60
-0.0060912073 0.040642835 0.043237388 109 91 86
-0.0041319109 0.040642835 0.043237388 117 102 98
-0.0016827902 0.040642835 0.043237388 102 89 84
-0.013732465 0.043679748 0.043237388 88 70 67
-0.010499624 0.043581784 0.043237388 132 118 113
-0.0090301512 0.043581784 0.043237388 146 132 128
-0.0060912073 0.04358178 0.043237388 115 101 99
-0.0041319109 0.043581784 0.043237388 106 95 90
-0.0013888956 0.043483816 0.043237388 100 86 83
-0.017846987 0.047010548 0.043237388 79 59 60
-0.015887689 0.046030901 0.043237388 116 98 97
-0.013928394 0.046030898 0.043237388 118 100 97
-0.010499624 0.046030901 0.043237388 119 107 103
-0.0090301512 0.046030901 0.043237388 119 107 105
-0.0060912068 0.046030898 0.043237388 123 113 111
-0.0041319104 0.046030901 0.043237388 115 111 109
-0.0018460647 0.045704354 0.043237388 125 120 119
-0.017846987 0.047990195 0.043237388 86 66 67
-0.015887689 0.048480019 0.043237388 133 117 116
-0.013928392 0.048480023 0.043237388 120 106 104
-0.010499624 0.048480026 0.043237388 113 104 103
-0.0090301502 0.048480026 0.043237388 104 93 92
-0.0060912068 0.048480023 0.043237388 132 125 124
-0.0041319104 0.047990199 0.043237388 125 122 119
-0.037643895 -0.015105399 0.53423738 7 16 9
-0.037189003 -0.015257032 0.53423738 7 15 9
-0.038007811 -0.014246155 0.53423733 10 16 10
-0.037255719 -0.014535265 0.53423738 8 14 8
-0.037974093 -0.014340029 0.53523737 9 16 10
-0.0374167 -0.014864637 0.53523737 7 16 9
-0.036135986 -0.010431953 0.54123735 10 14 9
-0.035983562 -0.0096664326 0.54109448 9 16 12
-0.035465386 -0.0087607913 0.54323739 9 16 11
-0.034860194 -0.007173215 0.54423738 10 14 10
-0.037049361 -0.0082903635 0.54523736 8 15 9
-0.036669992 -0.0074701477 0.54623741 12 18 18
-0.034633268 -0.0066544395 0.54557067 11 15 12
0 0 0 1 0 0 0 1 0 0 0 1 0 0 0 0 0 715 1 0 0
