# .PCD v0.7 - Point Cloud Data file format
VERSION 0.7
FIELDS x y z rgb
SIZE 4 4 4 4
TYPE F F F F
COUNT 1 1 1 1
WIDTH 835
HEIGHT 1
VIEWPOINT 0 0 0 1 0 0 0
POINTS 835
DATA ascii
0.054598294 -0.22250135 -0.65768671 3.4133963e-39
0.055643003 -0.22273065 -0.65759075 3.5967114e-39
0.051195133 -0.22070114 -0.65703303 8.2972564e-39
0.053976819 -0.22131169 -0.65677744 3.3212021e-39
0.055792514 -0.22134435 -0.65662384 3.1368122e-39
0.057878774 -0.22180226 -0.65643215 1.9389907e-39
0.051561289 -0.21822041 -0.65709126 1.3276539e-38
0.054284833 -0.21826938 -0.65686083 3.7811054e-39
0.055849526 -0.21861282 -0.65671706 3.3201245e-39
0.058341637 -0.21970862 -0.65646845 3.2279288e-39
0.052314289 -0.21728806 -0.65706152 1.2261674e-38
0.0055916058 -0.084034473 -0.61756796 1.1986514e-38
0.018084276 -0.082837217 -0.61756593 8.014159e-39
0.028030923 -0.084131196 -0.6176883 8.0116409e-39
0.039413191 -0.083691388 -0.61775231 7.0904035e-39
0.063056991 -0.087981768 -0.6166169 6.9978519e-39
0.065866083 -0.08974804 -0.61732179 6.8152599e-39
0.034715343 -0.085337862 -0.61507535 7.459186e-39
0.056368634 -0.085367374 -0.61626822 7.0904021e-39
0.058751669 -0.085829459 -0.61554945 7.1825991e-39
0.062200684 -0.086647451 -0.61573249 6.8134607e-39
0.0053643044 -0.084721915 -0.61555403 1.1709927e-38
0.014435984 -0.082788773 -0.61586571 8.0141632e-39
0.019415133 -0.083572268 -0.61692572 8.1056344e-39
0.020974122 -0.083405554 -0.61680079 8.2900257e-39
0.023377176 -0.083867043 -0.61608028 8.5655336e-39
0.025795341 -0.084397808 -0.6158582 8.3811423e-39
0.029925393 -0.084416762 -0.6165148 7.7350512e-39
0.031329907 -0.084594801 -0.61538631 7.7354099e-39
0.032780807 -0.084913254 -0.61525303 7.6435773e-39
0.036710158 -0.083993964 -0.61696434 6.9982078e-39
0.041270252 -0.083931983 -0.61624885 7.0904035e-39
0.044311494 -0.08412987 -0.61632109 6.998568e-39
0.045838073 -0.083893403 -0.61569929 7.1825991e-39
0.049078573 -0.08376728 -0.61693788 6.9060108e-39
0.050942056 -0.084054358 -0.61576694 6.8138166e-39
0.054154839 -0.083857849 -0.61650831 6.9978463e-39
0.055916287 -0.083341129 -0.61738318 7.2740731e-39
0.057863466 -0.083768517 -0.61720431 7.3662715e-39
0.0085347407 -0.082001574 -0.61638951 3.8707857e-39
0.010573238 -0.081940934 -0.61622053 7.7390253e-39
0.012987454 -0.082470834 -0.61599874 8.198916e-39
0.051453896 -0.082243077 -0.6167931 6.721621e-39
0.0031350811 -0.13619539 -0.61489803 2.4903666e-39
0.0016317497 -0.13338974 -0.61311668 2.5825622e-39
0.0049195653 -0.086222589 -0.61252505 9.3128432e-39
0.0051384107 -0.085403033 -0.61354023 1.0603582e-38
0.035626736 -0.085407667 -0.61399209 7.459186e-39
0.060161117 -0.086077847 -0.61492008 7.1822432e-39
0.013678758 -0.083232991 -0.61290091 7.9223291e-39
0.016825065 -0.083179571 -0.61464685 7.7372162e-39
0.018271223 -0.083496988 -0.61451405 7.737212e-39
0.021612555 -0.084096804 -0.61320776 8.3822213e-39
0.026721312 -0.08446914 -0.61477363 8.2889467e-39
0.028585214 -0.084680386 -0.61310333 8.1038337e-39
0.036748875 -0.084509239 -0.61292595 7.2747947e-39
0.039465792 -0.084281497 -0.61421216 7.0904035e-39
0.040883668 -0.084529243 -0.61358213 7.3669904e-39
0.045031812 -0.084548846 -0.61423725 6.9992868e-39
0.048592933 -0.08425089 -0.61344677 7.1825977e-39
0.0088740364 -0.082178406 -0.61334223 2.9499098e-39
0.0023763443 -0.13389584 -0.6100235 2.5825622e-39
0.0025888402 -0.13293467 -0.61004013 2.2137797e-39
0.0031227721 -0.1307499 -0.6110779 1.93719e-39
0.063207529 -0.088287711 -0.61056828 6.7230643e-39
0.031418029 -0.085148267 -0.61167711 7.8279671e-39
0.034284994 -0.085733563 -0.61108059 7.7357729e-39
0.03957865 -0.085001774 -0.61166644 7.6435773e-39
0.040957529 -0.085175842 -0.61054027 7.6432213e-39
0.044158168 -0.085057586 -0.61178195 7.0914825e-39
0.045494977 -0.085160621 -0.61015975 7.1836781e-39
0.054262422 -0.085309893 -0.61142635 7.2747919e-39
0.056672685 -0.085838921 -0.61120498 7.2747947e-39
0.058600899 -0.086262137 -0.61102784 7.0900447e-39
0.061591577 -0.08704216 -0.61175287 7.0900475e-39
0.0073609017 -0.084094524 -0.61139226 2.3978179e-39
0.0086372504 -0.082863778 -0.6113292 2.7655186e-39
0.017016489 -0.083830357 -0.61159503 7.6450206e-39
0.018455535 -0.084146209 -0.61146283 7.9208872e-39
0.020343151 -0.084425285 -0.61029005 8.3807864e-39
0.023020931 -0.084272355 -0.61207902 8.5655336e-39
0.025883295 -0.084833831 -0.61131644 8.3811423e-39
0.038616125 -0.084790505 -0.61175489 7.459186e-39
0.041783303 -0.084599786 -0.61249989 7.3669904e-39
0.045853626 -0.084478706 -0.61216241 7.0914825e-39
0.048814945 -0.08455883 -0.61140877 7.0911223e-39
0.05088805 -0.084569253 -0.61173636 7.0904035e-39
0.052816264 -0.084992476 -0.61155921 7.1818774e-39
0.0098212594 -0.082251079 -0.61225593 5.8054422e-39
0.010780623 -0.082461648 -0.61216784 7.6482632e-39
0.0069527649 -0.13590814 -0.60956693 6.2649812e-39
0.003436985 -0.13340303 -0.60894799 2.1215813e-39
0.0056302324 -0.13397738 -0.60840845 2.3041719e-39
0.0039634327 -0.13078399 -0.6079936 1.93719e-39
0.061083291 -0.08757095 -0.60876411 6.6308687e-39
0.062791981 -0.088957131 -0.60857087 6.8152599e-39
0.0070145028 -0.085105382 -0.60837257 2.3056194e-39
0.025054049 -0.085188806 -0.60785872 8.2889467e-39
0.029175701 -0.085356124 -0.60951489 8.1038337e-39
0.030564323 -0.085527346 -0.60838795 7.8279657e-39
0.035670102 -0.085905671 -0.609954 7.8279685e-39
0.03898612 -0.086545564 -0.60898304 8.1963937e-39
0.043735489 -0.085592702 -0.60878575 7.460265e-39
0.047265794 -0.085295461 -0.60799783 7.2758737e-39
0.048887767 -0.085272811 -0.60886657 7.4602636e-39
0.051391639 -0.085318476 -0.60865474 7.6435759e-39
0.053832732 -0.085916907 -0.60893035 7.6435745e-39
0.056188457 -0.086371332 -0.60821408 7.3669904e-39
0.0088736406 -0.08357624 -0.60877335 4.2399214e-39
0.011954849 -0.083318159 -0.60902596 7.7390183e-39
0.013864094 -0.083737209 -0.6088506 7.9219676e-39
0.016727962 -0.0843658 -0.6085875 7.7372162e-39
0.018159896 -0.084680095 -0.60845596 7.9208872e-39
0.021746349 -0.084598035 -0.60916185 8.196751e-39
0.023180654 -0.084912851 -0.60903013 8.1045554e-39
0.027260134 -0.084935673 -0.60969085 8.4726163e-39
0.04859101 -0.084829025 -0.60991162 7.2758709e-39
0.0069604586 -0.13356332 -0.60663801 5.5277735e-39
0.0091427211 -0.13409775 -0.60593343 8.9372098e-39
0.006565263 -0.13065736 -0.60610604 3.500913e-39
0.0077610947 -0.13118076 -0.60565209 6.9107038e-39
0.0039924714 -0.1288289 -0.60672241 1.7527988e-39
0.006174814 -0.12933084 -0.60585171 2.0279437e-39
0.0042356816 -0.12606861 -0.60613167 4.4261119e-39
0.0050048688 -0.12535991 -0.60508829 8.5756271e-39
0.0042657317 -0.12419818 -0.60519207 8.3901568e-39
0.061533306 -0.088300101 -0.60568762 6.6308687e-39
0.0067766299 -0.085625336 -0.60536134 2.4900107e-39
0.013381152 -0.085219517 -0.60582542 8.1067204e-39
0.016230796 -0.085844979 -0.60556364 7.6453807e-39
0.018620528 -0.08643961 -0.60584378 7.6446605e-39
0.021124966 -0.085677803 -0.60582811 7.7357743e-39
0.02282651 -0.085293673 -0.60502952 7.8279685e-39
0.026444603 -0.085358784 -0.60673165 8.2889453e-39
0.029257607 -0.085840978 -0.605474 8.1041939e-39
0.031948205 -0.085697517 -0.60726148 7.8279685e-39
0.03433476 -0.086221337 -0.60704231 7.8279685e-39
0.035766695 -0.086535633 -0.60691071 7.8279685e-39
0.038589042 -0.087066062 -0.60598522 8.0120024e-39
0.040645882 -0.087103486 -0.6064806 7.9198082e-39
0.043638188 -0.087302826 -0.60655683 7.4599119e-39
0.045984317 -0.085829124 -0.60658008 7.3684309e-39
0.049102668 -0.085571706 -0.60682952 7.7368519e-39
0.051015072 -0.085991457 -0.60665381 7.7357715e-39
0.053405583 -0.086516149 -0.60643423 7.4591832e-39
0.056381226 -0.086665377 -0.606179 7.1829592e-39
0.058492802 -0.086751863 -0.60700268 6.6308687e-39
0.0085273422 -0.084653072 -0.60625339 2.8580645e-39
0.01148139 -0.084802538 -0.60599995 7.9226921e-39
0.020038385 -0.084955513 -0.60728419 8.1041995e-39
0.0099680908 -0.13444526 -0.60434538 8.6606229e-39
0.01149891 -0.13322745 -0.6032564 8.3847548e-39
0.0091530392 -0.1305293 -0.60421968 7.4631559e-39
0.010822239 -0.13141587 -0.60337824 8.2007223e-39
0.0072222827 -0.12884511 -0.60477698 5.8040031e-39
0.0081610475 -0.1288361 -0.60369432 6.7252307e-39
0.010531799 -0.12935646 -0.60347652 7.6464653e-39
0.0067947572 -0.12614748 -0.60440761 5.9919929e-39
0.0082123969 -0.12635319 -0.60377908 6.3578915e-39
0.010568481 -0.12665901 -0.60256612 6.9092562e-39
0.0061530382 -0.12429982 -0.60352367 7.1912521e-39
0.0080433823 -0.12461052 -0.60285169 6.5440834e-39
0.0047842641 -0.12150729 -0.6037389 8.0213743e-39
0.0056233071 -0.12208699 -0.60314548 7.6525918e-39
0.0047800769 -0.11692106 -0.60340172 7.9288242e-39
0.038710292 -0.087780505 -0.60360634 7.5521061e-39
0.041224275 -0.087899335 -0.60389304 7.5521075e-39
0.043705139 -0.087944105 -0.60368311 7.6443031e-39
0.061227694 -0.088479772 -0.60369855 6.8152599e-39
0.0065493216 -0.086282857 -0.60334855 2.3059754e-39
0.0077041518 -0.085541822 -0.60327816 2.0293885e-39
0.011238106 -0.085464865 -0.60398829 7.5549844e-39
0.013131546 -0.085880451 -0.60381436 7.8312125e-39
0.015971705 -0.086503841 -0.60355353 7.4624272e-39
0.021598751 -0.085746571 -0.60310811 7.459186e-39
0.024726272 -0.085710652 -0.604855 8.2889467e-39
0.026089154 -0.085804448 -0.60323095 8.3811409e-39
0.028435834 -0.086251065 -0.60251582 8.1038337e-39
0.031086206 -0.086039476 -0.60380703 7.9216033e-39
0.033934269 -0.086664595 -0.60354543 7.8286902e-39
0.036335588 -0.087259278 -0.6038245 7.8283315e-39
0.046978988 -0.086662024 -0.60345417 7.3684337e-39
0.048776835 -0.086546108 -0.60401022 7.3680736e-39
0.052027144 -0.086898297 -0.6040259 7.1833222e-39
0.053412791 -0.087138139 -0.60339886 7.1833222e-39
0.056569614 -0.086956792 -0.60414439 7.0914825e-39
0.057999175 -0.087270565 -0.60401309 6.7230643e-39
0.0088713048 -0.084945373 -0.60420573 2.5811175e-39
0.014125722 -0.13269867 -0.60104644 7.7386666e-39
0.015070863 -0.13290612 -0.60095966 7.5549942e-39
0.012095111 -0.13097879 -0.60228288 7.7390225e-39
0.013837837 -0.13090575 -0.60080028 7.2776856e-39
0.012129069 -0.1282824 -0.60137266 7.2766038e-39
0.014008081 -0.12858813 -0.60070175 6.6323148e-39
0.015518403 -0.12831651 -0.60008258 6.6323162e-39
0.011603171 -0.12617861 -0.60149235 7.27768e-39
0.013001738 -0.12627485 -0.60036719 7.4620727e-39
0.0089421282 -0.12327337 -0.60182005 6.7273901e-39
0.01174264 -0.12301996 -0.60058975 7.0018148e-39
0.0058261016 -0.12093191 -0.60216576 7.7444273e-39
0.0082761971 -0.12134798 -0.60134256 7.0032595e-39
0.0057651806 -0.11873026 -0.6012457 7.7444273e-39
0.0083225286 -0.11809947 -0.60004944 6.7277516e-39
0.0049784342 -0.11557821 -0.60142487 7.7444329e-39
0.0060915952 -0.11635381 -0.6006341 7.0990635e-39
0.0085315183 -0.11715415 -0.60006577 7.18982e-39
0.035951968 -0.087763891 -0.60082614 7.7361358e-39
0.038787391 -0.088386238 -0.60056567 7.4599105e-39
0.041967418 -0.088360168 -0.60230786 7.6443031e-39
0.043284729 -0.088446453 -0.60068786 7.5528278e-39
0.046445161 -0.088345155 -0.60193235 7.5528278e-39
0.04830233 -0.088685997 -0.60126209 7.1840452e-39
0.05135604 -0.088358417 -0.60101736 7.1836837e-39
0.054094907 -0.088605799 -0.60061115 6.9996526e-39
0.057033494 -0.087675676 -0.60106713 6.8152599e-39
0.058930099 -0.088091969 -0.6008929 6.7237846e-39
0.0608267 -0.088508248 -0.60071874 6.6315903e-39
0.0068988982 -0.086564742 -0.60130072 2.1215827e-39
0.0085210307 -0.085928783 -0.60118735 1.8439126e-39
0.01115985 -0.086224698 -0.60070407 6.7252237e-39
0.013335246 -0.086490676 -0.60076284 7.46243e-39
0.016462198 -0.087000169 -0.60098404 7.4613482e-39
0.01922581 -0.086934313 -0.60125637 7.736496e-39
0.021090493 -0.087248988 -0.6004191 7.8279685e-39
0.023436304 -0.08594206 -0.60144049 7.7357729e-39
0.025777627 -0.086386673 -0.60072583 8.2889439e-39
0.029382553 -0.086458862 -0.60242885 7.9201613e-39
0.030728836 -0.086549014 -0.60080624 7.8294076e-39
0.033535443 -0.087096587 -0.60004884 7.7368533e-39
0.051133301 -0.08737848 -0.60157335 7.1833222e-39
0.055655748 -0.08743757 -0.60169351 6.8152599e-39
0.032557089 -0.13850981 -0.59828579 2.1205051e-39
0.027271165 -0.13514386 -0.59784639 7.465688e-39
0.015991708 -0.1328882 -0.59987873 7.3706029e-39
0.019488025 -0.13255356 -0.59909505 7.0951006e-39
0.020886304 -0.13275127 -0.59846848 6.7284775e-39
0.023241252 -0.13326815 -0.59825212 8.4812819e-39
0.026329186 -0.13493711 -0.59793293 7.2812968e-39
0.015833938 -0.1313643 -0.59994668 6.8174277e-39
0.018522955 -0.13164455 -0.59904134 6.909622e-39
0.020624306 -0.13170257 -0.59852809 7.0954538e-39
0.016637279 -0.12825547 -0.59932137 6.5404807e-39
0.019255128 -0.12887119 -0.5984937 6.5408394e-39
0.020932967 -0.12931587 -0.59791839 6.7255908e-39
0.013662438 -0.12521861 -0.59934545 7.5531907e-39
0.016174585 -0.12636471 -0.59909332 6.5404807e-39
0.019284405 -0.12624417 -0.59783238 6.541917e-39
0.020016164 -0.1273943 -0.59772962 6.5419184e-39
0.013609428 -0.12322462 -0.5994215 7.0932916e-39
0.016323105 -0.12328532 -0.59818727 7.0011001e-39
0.017612247 -0.12488764 -0.59802151 6.5408366e-39
0.0093175154 -0.12030022 -0.59988689 7.6479073e-39
0.011847128 -0.12151623 -0.59963077 7.4620783e-39
0.013644779 -0.12148476 -0.59867764 7.1854928e-39
0.0092645064 -0.11830622 -0.59996289 8.9404468e-39
0.011515275 -0.11827197 -0.59877098 9.0326452e-39
0.013577017 -0.11846078 -0.59808898 1.069325e-38
0.0068475492 -0.11559825 -0.5992589 5.0703995e-39
0.0092901951 -0.11652982 -0.59935504 9.679102e-39
0.011160366 -0.11680969 -0.59851855 8.7567814e-39
0.013879681 -0.11694664 -0.59761584 7.9281011e-39
0.0066091763 -0.11327198 -0.59911144 2.950263e-39
0.0091327615 -0.11392902 -0.59812278 6.5448051e-39
0.010540988 -0.11423811 -0.59799337 6.9128674e-39
0.012888032 -0.11475326 -0.59777778 7.7404644e-39
0.0059681484 -0.11191728 -0.59846073 1.9368299e-39
0.0062027024 -0.10914935 -0.59753621 1.4762119e-39
0.048082437 -0.090152591 -0.59771329 7.5531907e-39
0.055274144 -0.090015881 -0.59912264 7.0000197e-39
0.0063555385 -0.088547938 -0.59876478 1.9371886e-39
0.011453898 -0.087619483 -0.59786791 7.2783975e-39
0.014186277 -0.087938882 -0.59796166 7.5542683e-39
0.016373074 -0.087858215 -0.59845036 7.921969e-39
0.019427961 -0.087684423 -0.59920418 7.552462e-39
0.020806042 -0.087843344 -0.59807861 7.7357729e-39
0.024318997 -0.087697491 -0.59829092 7.6432171e-39
0.02570842 -0.087931506 -0.59766376 7.4602622e-39
0.03415985 -0.087949358 -0.59795749 7.7368589e-39
0.036510848 -0.088465378 -0.59774154 7.6450234e-39
0.037982672 -0.088926986 -0.59860551 7.4602762e-39
0.042027473 -0.088960499 -0.59926873 7.6446633e-39
0.043372542 -0.089118823 -0.59814596 7.6450234e-39
0.046153337 -0.089440897 -0.59870422 7.4617111e-39
0.047975905 -0.089408502 -0.59975731 7.4609951e-39
0.051347502 -0.089583665 -0.59896576 7.2773227e-39
0.056166098 -0.088222638 -0.59911203 6.9074556e-39
0.058528949 -0.088741258 -0.59889501 6.8159802e-39
0.060891796 -0.089259878 -0.59867799 6.9078157e-39
0.063357927 -0.089931414 -0.59945089 7.552825e-39
0.0072460175 -0.086842775 -0.5992533 1.93719e-39
0.0081735682 -0.086899489 -0.59816921 1.751717e-39
0.011135339 -0.086988918 -0.59858674 7.186562e-39
0.013087213 -0.087137006 -0.5987522 7.7390169e-39
0.029017942 -0.086913131 -0.59909588 7.5528194e-39
0.042866822 -0.1405493 -0.59634262 1.4105923e-38
0.0286153 -0.13510881 -0.59622854 7.4664111e-39
0.033838645 -0.13647534 -0.59674501 1.4012651e-38
0.036219962 -0.13710803 -0.59702432 1.4104847e-38
0.037572287 -0.13718481 -0.59590387 1.4289238e-38
0.024615355 -0.13335137 -0.59712958 9.3096034e-39
0.026865041 -0.13344307 -0.59660268 7.7415532e-39
0.028331762 -0.1339487 -0.59579188 7.3742141e-39
0.02385476 -0.13136062 -0.59706414 7.6486303e-39
0.02611864 -0.13039267 -0.59560335 7.5546312e-39
0.021758523 -0.12806059 -0.59655523 6.6341141e-39
0.024076773 -0.12841146 -0.59559488 6.8174263e-39
0.025369383 -0.12913533 -0.5952093 7.2776856e-39
0.021227535 -0.12591664 -0.59642577 6.4497214e-39
0.017062917 -0.1225846 -0.59714615 7.0010987e-39
0.01882867 -0.12341523 -0.596717 6.909622e-39
0.020959439 -0.12389388 -0.59576774 7.0028952e-39
0.016801795 -0.12153943 -0.59720552 7.6464695e-39
0.018181879 -0.12164059 -0.59608191 8.2925564e-39
0.020056352 -0.12205201 -0.59590971 8.2925592e-39
0.01487133 -0.11914 -0.59745377 1.1798883e-38
0.016261945 -0.11878666 -0.5973497 1.143262e-38
0.018383298 -0.11888443 -0.59596306 1.115315e-38
0.01602813 -0.11656562 -0.5964449 9.8660128e-39
0.018013319 -0.11615101 -0.59528881 1.0788332e-38
0.0093278354 -0.11279386 -0.59714293 6.5426415e-39
0.010733692 -0.11310244 -0.59701383 7.4653167e-39
0.014128208 -0.11394877 -0.5963636 7.9273794e-39
0.015500179 -0.11346625 -0.59559631 7.9284654e-39
0.0067240624 -0.11123617 -0.59741753 2.1204995e-39
0.0085985372 -0.11164759 -0.59724534 5.3448186e-39
0.011214214 -0.11131519 -0.59569865 7.0043385e-39
0.013264831 -0.11248335 -0.59581923 7.7429826e-39
0.0069569158 -0.10847342 -0.59649295 1.9357467e-39
0.0087552154 -0.10913514 -0.59598345 5.3448186e-39
0.011016579 -0.10914482 -0.59537476 6.267135e-39
0.0062396294 -0.10637548 -0.59587538 1.3836533e-39
0.0079157986 -0.10686175 -0.59546608 3.6863819e-39
0.0062889177 -0.10388368 -0.59570962 1.2918178e-39
0.0060009323 -0.09317749 -0.59511387 1.3840163e-39
0.0067470623 -0.09063793 -0.59564447 1.6598815e-39
0.010798585 -0.090130493 -0.59582448 6.170252e-39
0.015209164 -0.090115711 -0.59545457 7.5499537e-39
0.044901349 -0.090168446 -0.59597158 6.911787e-39
0.046309575 -0.090477541 -0.59584224 7.1894557e-39
0.04880143 -0.090598993 -0.59613073 6.910708e-39
0.051522058 -0.090440266 -0.59640998 7.3702456e-39
0.054325491 -0.090396464 -0.59617615 7.3702498e-39
0.056206286 -0.090809278 -0.59600335 7.6453975e-39
0.059027482 -0.091428503 -0.59574419 7.8297832e-39
0.061637003 -0.0910777 -0.59603971 6.9085458e-39
0.062942013 -0.090572491 -0.59745449 6.9993009e-39
0.0061360504 -0.089258984 -0.59725147 1.9371872e-39
0.0085730851 -0.089225695 -0.59654593 3.7774929e-39
0.011483591 -0.089398123 -0.59646267 6.3557237e-39
0.014275087 -0.089910686 -0.5955404 7.4584769e-39
0.016115375 -0.088495761 -0.59644079 8.014166e-39
0.019033482 -0.088679865 -0.5964402 8.1045568e-39
0.02100182 -0.088582918 -0.59602726 8.1031177e-39
0.024034437 -0.088336617 -0.59628356 7.5510215e-39
0.026354946 -0.088774174 -0.59557086 7.552818e-39
0.029624538 -0.087662973 -0.59634036 7.4609853e-39
0.031448405 -0.087923072 -0.5951736 7.5528236e-39
0.033319719 -0.088333808 -0.59500176 7.737219e-39
0.036653817 -0.089205831 -0.59569466 7.7368617e-39
0.038796205 -0.089439712 -0.59617573 7.7368645e-39
0.041648865 -0.089523837 -0.59676993 7.6457507e-39
0.043023713 -0.089756325 -0.59614408 7.3706029e-39
0.056716226 -0.089074075 -0.59702694 6.7234328e-39
0.059071172 -0.089590967 -0.59681064 6.6312372e-39
0.060013149 -0.08979772 -0.59672409 6.6312344e-39
0.028218683 -0.087354407 -0.59646952 7.6446549e-39
0.030819084 -0.087077536 -0.59726518 7.7375722e-39
0.03269672 -0.087489657 -0.59709269 7.552825e-39
0.043458506 -0.14122029 -0.59426057 1.4659108e-38
0.031358972 -0.13538095 -0.59448212 1.3366206e-38
0.034847241 -0.13516039 -0.59419709 9.7716522e-39
0.036253095 -0.13546896 -0.59406793 8.7575002e-39
0.038564108 -0.135867 -0.59335744 8.296885e-39
0.029177045 -0.13369745 -0.59372157 7.2820212e-39
0.031516187 -0.13421087 -0.59350669 6.5437289e-39
0.032972764 -0.13474895 -0.59436929 7.558957e-39
0.02873677 -0.13103251 -0.59335214 7.3716819e-39
0.031793345 -0.13175996 -0.59256727 7.2802051e-39
0.026700454 -0.12848938 -0.59378177 8.1999978e-39
0.028921232 -0.1290983 -0.59290397 7.6479045e-39
0.024080561 -0.12568712 -0.59443706 6.5419184e-39
0.025463387 -0.12588726 -0.59381169 7.1869305e-39
0.027778709 -0.12629208 -0.59310061 7.3706001e-39
0.0220528 -0.12376525 -0.59467638 7.4638733e-39
0.023789816 -0.12391462 -0.59419036 8.201081e-39
0.025564155 -0.12449551 -0.59335107 9.1230415e-39
0.021731116 -0.12069144 -0.59456265 9.2170378e-39
0.023669561 -0.12099823 -0.59296626 9.1248408e-39
0.02503868 -0.12057789 -0.59253168 1.1983626e-38
0.021289086 -0.11890533 -0.5944128 1.0141519e-38
0.02301777 -0.11866252 -0.5927701 1.1156387e-38
0.025245566 -0.11964211 -0.59254789 1.1524454e-38
0.019369004 -0.11560042 -0.5941906 1.0881248e-38
0.021686699 -0.11601324 -0.59347904 1.152698e-38
0.016047174 -0.11290558 -0.59456629 8.9429789e-39
0.018730631 -0.1138915 -0.59380347 9.6816285e-39
0.021410633 -0.11487556 -0.593041 1.1710653e-38
0.014126457 -0.11051828 -0.59481329 8.850056e-39
0.015981944 -0.11083297 -0.59414411 9.4957911e-39
0.01830131 -0.11124948 -0.59343225 1.0603582e-38
0.011255116 -0.1077405 -0.59414989 7.8348223e-39
0.01440969 -0.10887806 -0.59359318 9.3113985e-39
0.016267778 -0.10924044 -0.59317309 7.9284668e-39
0.0088714017 -0.1052549 -0.59443933 9.4950653e-39
0.011202641 -0.10576658 -0.59422517 1.069469e-38
0.01389262 -0.10585202 -0.59299207 8.5727544e-39
0.0153753 -0.10650396 -0.59284419 7.8351894e-39
0.0070403889 -0.10321767 -0.59466624 1.3829344e-39
0.0087092742 -0.10365994 -0.59400815 8.019938e-39
0.011464854 -0.10388249 -0.59326667 1.0972719e-38
0.012789088 -0.10495678 -0.59311688 1.0325913e-38
0.0066857538 -0.10165808 -0.59374785 1.3829344e-39
0.0088961441 -0.10132557 -0.5933733 6.8195885e-39
0.0063744462 -0.098651126 -0.59388191 1.1989047e-39
0.0084580425 -0.098754138 -0.5935359 5.0675114e-39
0.010186583 -0.098830417 -0.59255111 7.3713204e-39
0.0060631381 -0.095644176 -0.59401596 1.3840163e-39
0.0089591509 -0.095790051 -0.59376758 4.5128971e-39
0.010805137 -0.096032552 -0.59259963 6.0780606e-39
0.0063729412 -0.094242863 -0.59404027 1.3840148e-39
0.0089097572 -0.093859762 -0.59409195 4.8820342e-39
0.010768595 -0.094228119 -0.59367162 5.8011094e-39
0.013871145 -0.093439788 -0.59343934 6.4457599e-39
0.015474051 -0.092812069 -0.59332728 1.0777876e-38
0.0093501145 -0.091296054 -0.59490013 5.2504566e-39
0.011313006 -0.091184556 -0.59440452 5.9851405e-39
0.014245443 -0.09145841 -0.59408152 6.3535643e-39
0.015796073 -0.091489375 -0.59384978 7.5521075e-39
0.018395506 -0.091739103 -0.59312046 6.8134635e-39
0.020954769 -0.090096861 -0.59296441 7.4573881e-39
0.0228166 -0.090505518 -0.59279341 6.168094e-39
0.033730917 -0.090106018 -0.59289527 1.0595296e-38
0.03612075 -0.090774104 -0.59367478 9.4907465e-39
0.037521861 -0.091081642 -0.59354609 8.6613417e-39
0.041740626 -0.090182111 -0.59422821 8.1996447e-39
0.043577157 -0.090515092 -0.59355998 8.9390104e-39
0.046393085 -0.091156535 -0.59346777 9.6783803e-39
0.049329855 -0.091354765 -0.59354877 8.8475463e-39
0.050836951 -0.09119413 -0.59342796 7.8341132e-39
0.053685337 -0.091254234 -0.59385604 8.478398e-39
0.055814434 -0.091439001 -0.59400535 8.4755169e-39
0.058626145 -0.09205614 -0.59374708 8.1063701e-39
0.060185507 -0.091972925 -0.59412116 7.8297832e-39
0.016325336 -0.089229293 -0.59438848 8.0120066e-39
0.018656574 -0.089740977 -0.59417439 7.8268937e-39
0.020609278 -0.089604698 -0.59351319 7.7346939e-39
0.023887951 -0.089514852 -0.59374315 6.9063723e-39
0.026064064 -0.089404434 -0.59356433 7.4602678e-39
0.02864814 -0.089133948 -0.59436119 7.6460982e-39
0.030933429 -0.089492001 -0.59315228 7.9226921e-39
0.033526897 -0.089220256 -0.59394836 8.1056456e-39
0.040804971 -0.089976743 -0.59431416 8.0141717e-39
0.045736413 -0.13809654 -0.59116888 8.1110574e-39
0.04099907 -0.13683671 -0.59060776 1.1892876e-38
0.036083285 -0.13302918 -0.59216142 8.6635067e-39
0.038822241 -0.13341528 -0.59091341 6.821399e-39
0.03311329 -0.1310278 -0.59167933 7.3713204e-39
0.036295392 -0.13124743 -0.59053397 8.0177758e-39
0.038034592 -0.1320478 -0.59002447 7.0965342e-39
0.031956919 -0.12886062 -0.59115136 7.094372e-39
0.033534165 -0.12812139 -0.59054333 7.0950908e-39
0.035861451 -0.1286322 -0.59032953 7.1872907e-39
0.028977355 -0.12575971 -0.59201491 7.1862074e-39
0.03096026 -0.12662859 -0.5910641 7.0018148e-39
0.033344086 -0.12677361 -0.59060764 7.0025351e-39
0.026283011 -0.12379464 -0.59231174 8.2947214e-39
0.029048799 -0.12426609 -0.59139311 7.3720448e-39
0.026302161 -0.12119658 -0.59165025 9.1255681e-39
0.029015865 -0.12128959 -0.59036458 9.4932744e-39
0.030328678 -0.12232002 -0.59001654 8.5705922e-39
0.026552912 -0.11847947 -0.59107399 1.0603222e-38
0.023624321 -0.11591695 -0.59161276 1.2263465e-38
0.026248261 -0.11653502 -0.59056681 1.2356378e-38
0.021945596 -0.1143131 -0.59201211 1.19876e-38
0.022961142 -0.113952 -0.5914377 1.1987598e-38
0.019031117 -0.11057151 -0.59239119 9.6805467e-39
0.021143332 -0.11106037 -0.59144306 1.0141886e-38
0.022975717 -0.11132455 -0.59052658 1.0510312e-38
0.019121358 -0.10910347 -0.59143209 8.573839e-39
0.021426938 -0.10951862 -0.59072149 9.6801894e-39
0.023266273 -0.10983143 -0.59005368 1.0602147e-38
0.016590634 -0.10600553 -0.59175575 9.3103209e-39
0.019432956 -0.10635009 -0.59075165 9.5861889e-39
0.020533718 -0.10679112 -0.59039229 9.7705816e-39
0.012252938 -0.10270654 -0.59223849 1.1526612e-38
0.013664373 -0.10366825 -0.59208536 1.1432261e-38
0.016104426 -0.10367807 -0.59147847 1.1524096e-38
0.017801166 -0.10375082 -0.59073091 1.1154955e-38
0.011735974 -0.10063731 -0.59235615 1.1431527e-38
0.013129976 -0.10094328 -0.59222811 1.0047882e-38
0.016254107 -0.10106834 -0.59095711 1.0510306e-38
0.012045252 -0.099238373 -0.5923804 1.032266e-38
0.013428699 -0.099458195 -0.59175426 9.401069e-39
0.016510949 -0.098586559 -0.59102464 9.1230429e-39
0.013693791 -0.096159473 -0.59224087 6.6297953e-39
0.016836604 -0.096380197 -0.59107643 7.0918552e-39
0.01759233 -0.095895268 -0.59103036 7.2751647e-39
0.014108603 -0.094312929 -0.59238386 5.9847818e-39
0.016474387 -0.093802035 -0.59186882 6.9056591e-39
0.018737096 -0.093474872 -0.59142274 6.9978561e-39
0.020821067 -0.093024492 -0.59086227 6.4446837e-39
0.023054436 -0.093189284 -0.59066874 6.9989337e-39
0.026043534 -0.09286914 -0.59042925 7.0896972e-39
0.041779451 -0.092563368 -0.59012282 1.355276e-38
0.044920862 -0.092562094 -0.59186739 1.4383597e-38
0.046319604 -0.092869103 -0.59173894 1.3091782e-38
0.049036369 -0.09332186 -0.59049034 1.0878734e-38
0.051363662 -0.093832672 -0.5902766 1.1155677e-38
0.053942144 -0.093489192 -0.59057438 1.2445335e-38
0.056524582 -0.093146577 -0.59087193 1.2073673e-38
0.058758277 -0.093131267 -0.59128743 9.2156015e-39
0.061546415 -0.093474627 -0.59194463 9.3085132e-39
0.018444495 -0.092330977 -0.59209085 7.0900503e-39
0.021438684 -0.092010304 -0.59185088 6.4450425e-39
0.023949271 -0.091507532 -0.59115601 6.8145411e-39
0.026861651 -0.090868793 -0.59110177 7.0914923e-39
0.0288305 -0.090836756 -0.59110492 7.647194e-39
0.031333894 -0.091198482 -0.5907144 1.0599984e-38
0.033072606 -0.09107507 -0.59157687 1.1797085e-38
0.036129873 -0.091884889 -0.59112376 1.2442813e-38
0.038812831 -0.091730364 -0.59140605 1.0321952e-38
0.041055225 -0.091778666 -0.59096491 9.3088832e-39
0.043916337 -0.092198066 -0.59096068 1.3829344e-38
0.049997114 -0.091713868 -0.59147155 1.235098e-38
0.05092961 -0.091918543 -0.5913859 1.3735713e-38
0.053924803 -0.092014194 -0.59180033 1.106276e-38
0.055891018 -0.092164882 -0.59196454 7.0958293e-39
0.028349705 -0.089760892 -0.59235549 7.2773241e-39
0.04351832 -0.13814913 -0.58934498 1.4566901e-38
0.049516883 -0.13750668 -0.58886427 9.586556e-39
0.041138645 -0.13566774 -0.58963388 8.942616e-39
0.043792095 -0.13663071 -0.58887434 9.6787447e-39
0.045718003 -0.13645446 -0.58821684 8.6642312e-39
0.048732184 -0.13619277 -0.58822417 1.004717e-38
0.051706381 -0.13581309 -0.58773696 1.4100182e-38
0.053082954 -0.13546331 -0.58763391 1.1241034e-38
0.041264798 -0.133267 -0.58903998 6.8195927e-39
0.043697033 -0.13365804 -0.58815223 7.0947447e-39
0.045665704 -0.13448723 -0.58829182 7.0951076e-39
0.047989044 -0.13499717 -0.58807844 7.648287e-39
0.051912565 -0.13488047 -0.58775312 1.2907391e-38
0.054442085 -0.1344578 -0.58755583 1.1145952e-38
0.055319127 -0.13269454 -0.58754545 1.2811956e-38
0.039004974 -0.13155845 -0.58895636 6.8199459e-39
0.04089801 -0.13167655 -0.5885421 6.6351945e-39
0.043888696 -0.13095349 -0.58756375 6.3575314e-39
0.036835521 -0.12814865 -0.58926094 7.095095e-39
0.038198195 -0.12834437 -0.58863735 6.9099835e-39
0.04145829 -0.12874652 -0.58784705 6.5411968e-39
0.043819081 -0.12833498 -0.58766359 6.0798627e-39
0.045331039 -0.12882954 -0.58751881 7.55572e-39
0.03380597 -0.12569092 -0.58960354 7.0025351e-39
0.03659223 -0.12631048 -0.58874482 6.9103436e-39
0.038389783 -0.1264925 -0.58818561 6.5404807e-39
0.040795181 -0.12734586 -0.58795303 6.2642497e-39
0.031051829 -0.12345662 -0.58991504 7.8319426e-39
0.033836603 -0.12371154 -0.58886874 7.1862074e-39
0.036876835 -0.12306906 -0.58843559 7.0021707e-39
0.038629424 -0.12394185 -0.58825707 7.0014547e-39
0.041876562 -0.12465456 -0.58795881 8.0152507e-39
0.059544392 -0.12305541 -0.58854079 1.2909196e-38
0.029763551 -0.12004345 -0.58914155 8.2943725e-39
0.031052265 -0.12081442 -0.58900565 8.2018083e-39
0.033807889 -0.12132086 -0.58825397 7.1865662e-39
0.035198338 -0.12162605 -0.5881263 6.8174235e-39
0.05984984 -0.12233136 -0.58954525 1.2909196e-38
0.060263615 -0.12045977 -0.58957767 1.3278697e-38
0.029247465 -0.11797775 -0.58925903 9.5869092e-39
0.031102972 -0.11838502 -0.58908862 8.9393748e-39
0.034396879 -0.11842727 -0.58780628 7.0028952e-39
0.035786137 -0.1187322 -0.58767867 7.3716763e-39
0.037741229 -0.11867404 -0.58751661 7.5549886e-39
0.026411995 -0.11540295 -0.58958954 1.2356738e-38
0.028616466 -0.1163274 -0.58912021 1.1340786e-38
0.031360753 -0.11678632 -0.58812016 8.2947228e-39
0.034447499 -0.11600201 -0.58788908 7.6468283e-39
0.03583676 -0.11630693 -0.58776146 7.6464653e-39
0.038357679 -0.1158857 -0.58756489 1.1058423e-38
0.024298443 -0.11396284 -0.58981872 1.1895044e-38
0.026948875 -0.1134444 -0.58894533 1.1341506e-38
0.02827251 -0.11318482 -0.58850878 1.0050405e-38
0.030768117 -0.11397623 -0.58827078 8.3883632e-39
0.032800637 -0.11466599 -0.58807534 7.3716819e-39
0.036710814 -0.11454967 -0.58775115 9.0276019e-39
0.039231732 -0.11412843 -0.58755457 1.0321223e-38
0.059649006 -0.11310948 -0.58788472 1.2078359e-38
0.024339177 -0.11148538 -0.58965313 1.0234083e-38
0.026305817 -0.11100225 -0.58850121 9.6805453e-39
0.028185941 -0.11107996 -0.58783847 8.3887261e-39
0.040311269 -0.11144172 -0.5875603 1.1151715e-38
0.023768947 -0.10829814 -0.58906239 8.5738405e-39
0.026376128 -0.10820463 -0.58784258 7.8348321e-39
0.028790178 -0.10824805 -0.58763832 7.7401113e-39
0.04164841 -0.10978612 -0.58750743 1.0969122e-38
0.020895371 -0.10555589 -0.58940214 8.6645927e-39
0.023928652 -0.10629624 -0.58861876 8.4794854e-39
0.025759235 -0.1066099 -0.58795166 7.6482814e-39
0.028353149 -0.10693602 -0.58772212 8.1085337e-39
0.019831212 -0.10304836 -0.58958149 1.0876929e-38
0.021203242 -0.10326359 -0.58895648 8.5723971e-39
0.024063149 -0.10331896 -0.58821225 8.3876429e-39
0.025724048 -0.10384566 -0.58805388 7.3731267e-39
0.028121253 -0.10469612 -0.58782196 1.01354e-38
0.017463658 -0.1005796 -0.5898689 1.0971286e-38
0.018287089 -0.10124761 -0.5897758 1.0878734e-38
0.021149134 -0.1012951 -0.58897579 1.0324834e-38
0.024285128 -0.10158405 -0.58825582 7.5571606e-39
0.02503828 -0.10110077 -0.58820993 7.6468339e-39
0.056453586 -0.10052004 -0.58760077 9.5840211e-39
0.018337712 -0.09882234 -0.58985853 1.0323031e-38
0.021510353 -0.098056354 -0.58861548 8.0166982e-39
0.023701925 -0.098375238 -0.58841997 8.1074547e-39
0.026115974 -0.098418653 -0.58821565 1.0781847e-38
0.028632591 -0.097998127 -0.58801943 1.2539329e-38
0.030944074 -0.098505475 -0.58780706 1.2999231e-38
0.034180149 -0.099215753 -0.58750981 1.1523743e-38
0.04411421 -0.098632701 -0.58770061 1.0231565e-38
0.045143127 -0.098371267 -0.5876236 1.0231564e-38
0.048773512 -0.097858131 -0.5883413 1.0417022e-38
0.051556773 -0.098469034 -0.58808559 1.0323747e-38
0.053498294 -0.099220574 -0.58789557 1.0414145e-38
0.056401376 -0.098556161 -0.58767563 9.8609695e-39
0.057793006 -0.098861605 -0.58754778 1.0137555e-38
0.061089296 -0.09777955 -0.58831394 9.4003529e-39
0.01885142 -0.09649872 -0.58989882 7.3684435e-39
0.021498049 -0.096863806 -0.58932871 7.4613594e-39
0.024009626 -0.096983433 -0.58844405 9.0283236e-39
0.02616651 -0.09599752 -0.58829832 1.0320507e-38
0.028803036 -0.095765464 -0.58808523 1.3461286e-38
0.031379938 -0.095870204 -0.58803242 1.4846382e-38
0.034210905 -0.096529126 -0.58780444 1.3184346e-38
0.036052629 -0.095563866 -0.5884878 1.198472e-38
0.039431226 -0.095655739 -0.58820075 1.0508147e-38
0.041300945 -0.09671583 -0.58800566 1.1339707e-38
0.043547634 -0.096802883 -0.58781385 1.1615219e-38
0.045466557 -0.095780052 -0.58835888 1.1892166e-38
0.049004696 -0.095712394 -0.58839887 1.0969846e-38
0.051882427 -0.096262671 -0.58813745 1.1891436e-38
0.053741001 -0.095952228 -0.58836907 1.1614486e-38
0.056806013 -0.096068449 -0.58848405 9.8616954e-39
0.058196269 -0.095999159 -0.58882165 9.8616954e-39
0.060778145 -0.096455276 -0.58872229 1.0045722e-38
0.019828215 -0.094276741 -0.5898965 6.6287163e-39
0.021783303 -0.094218582 -0.58973444 6.1695374e-39
0.023319306 -0.094231978 -0.58940417 6.9989379e-39
0.026485041 -0.094061859 -0.58901048 8.8446582e-39
0.028214401 -0.093681037 -0.58921361 1.1893601e-38
0.031291325 -0.094258927 -0.58893448 1.4478675e-38
0.03457113 -0.093688712 -0.58918154 9.5869162e-39
0.035961576 -0.093993902 -0.58905387 9.2174106e-39
0.038587384 -0.093107581 -0.58886516 1.1520859e-38
0.040904798 -0.093616225 -0.58865225 1.2260944e-38
0.043836817 -0.093869589 -0.58906633 1.3370167e-38
0.045820728 -0.093865879 -0.58923459 1.3000308e-38
0.048606358 -0.094477303 -0.58897871 1.1524459e-38
0.051072799 -0.094603166 -0.58926916 1.1893239e-38
0.055087321 -0.094649978 -0.58993453 1.0508144e-38
0.032124646 -0.091763347 -0.58995819 1.272264e-38
0.032949481 -0.092432499 -0.58986491 1.3553842e-38
0.044450674 -0.1384867 -0.5869115 1.4290674e-38
0.046323013 -0.13842444 -0.58608705 1.4290314e-38
0.047214437 -0.1373207 -0.58605176 8.664234e-39
0.044404782 -0.13301919 -0.58744627 6.7259566e-39
0.045796413 -0.13332465 -0.58731842 6.6341267e-39
0.048940331 -0.13362423 -0.58704364 1.2722282e-38
0.051104896 -0.1335136 -0.58686584 1.2815555e-38
0.052960403 -0.13392085 -0.58669537 1.3364416e-38
0.044610616 -0.13208817 -0.58746243 6.5415653e-39
0.04597092 -0.13121529 -0.58737946 6.7263195e-39
0.049300093 -0.13067693 -0.58711922 1.383043e-38
0.051275924 -0.13127328 -0.58693188 1.281628e-38
0.05384298 -0.13118593 -0.58671945 1.1525181e-38
0.056487851 -0.13133003 -0.58674318 1.1246792e-38
0.057700593 -0.13008019 -0.58643514 1.106132e-38
0.046722665 -0.12913498 -0.58739102 1.0323397e-38
0.049247883 -0.12871304 -0.58719409 1.4107379e-38
0.050639514 -0.12901847 -0.58706629 1.4015904e-38
0.053706177 -0.12944752 -0.5867933 1.1154961e-38
0.055810276 -0.12836368 -0.5866555 1.1613417e-38
0.05811226 -0.12821813 -0.58646739 1.1243914e-38
0.04160228 -0.12536882 -0.58695209 6.4486424e-39
0.043917716 -0.12587702 -0.5867393 9.9520819e-39
0.046078585 -0.12576659 -0.58656186 1.3090698e-38
0.048815042 -0.12612703 -0.58707219 1.2908834e-38
0.051257018 -0.12622535 -0.58711463 1.3462371e-38
0.054143202 -0.12637074 -0.58686703 1.2814482e-38
0.056101628 -0.12631248 -0.58670461 1.299779e-38
0.058421016 -0.12682158 -0.58649158 1.1429385e-38
0.038900442 -0.12331396 -0.58725274 6.8170648e-39
0.04201325 -0.12350991 -0.58698428 8.1074463e-39
0.043222334 -0.12353165 -0.58688188 1.1243908e-38
0.04628377 -0.12395997 -0.58660942 1.1893238e-38
0.048136115 -0.12436654 -0.58643931 1.2447856e-38
0.05143553 -0.1239799 -0.58697939 1.3462733e-38
0.054399744 -0.1230103 -0.5869661 1.3002113e-38
0.056255251 -0.12341756 -0.58679563 1.1341872e-38
0.059038512 -0.12402846 -0.58653998 1.2908117e-38
0.037124779 -0.12146239 -0.58746827 6.9099751e-39
0.039079867 -0.12140424 -0.5873062 7.0010945e-39
0.041412175 -0.12110403 -0.58712101 9.9524421e-39
0.043778729 -0.12064891 -0.58693868 1.3091062e-38
0.046437137 -0.12106998 -0.58670026 1.3092148e-38
0.048443742 -0.12121804 -0.58652651 1.3092867e-38
0.051330496 -0.12129622 -0.58695066 1.3924071e-38
0.053636353 -0.12118318 -0.58709574 1.32787e-38
0.056460787 -0.12160788 -0.58684337 1.2355662e-38
0.05769759 -0.1212936 -0.58675075 1.2633328e-38
0.03907897 -0.11877275 -0.58740073 8.8453673e-39
0.041205689 -0.11910961 -0.58721 1.0874757e-38
0.043452382 -0.11919667 -0.58701813 1.2444975e-38
0.046727985 -0.11902229 -0.58674932 1.1708493e-38
0.048442848 -0.11858656 -0.58662099 1.2908114e-38
0.051469542 -0.11836889 -0.58687669 1.3924069e-38
0.053006612 -0.11831155 -0.58725172 1.4201735e-38
0.056356668 -0.11855874 -0.58696151 1.2262747e-38
0.058315098 -0.11850049 -0.58679914 1.3186499e-38
0.039386593 -0.11562425 -0.58748782 1.0598526e-38
0.040775858 -0.11592918 -0.5873602 1.0229028e-38
0.043826226 -0.11625066 -0.58709246 9.7687767e-39
0.046075292 -0.1161178 -0.5869084 1.1338985e-38
0.048815094 -0.1163537 -0.5866698 1.2539333e-38
0.051311892 -0.11625195 -0.58713323 1.3831872e-38
0.05331536 -0.116915 -0.58727592 1.410954e-38
0.056407377 -0.11612934 -0.58704442 1.3645683e-38
0.058176871 -0.11619232 -0.58689356 1.3093946e-38
0.03156545 -0.1132352 -0.58722627 7.2809324e-39
0.033637118 -0.11336561 -0.58704764 7.9237781e-39
0.03587997 -0.11345252 -0.58685613 9.1201647e-39
0.038910165 -0.1129015 -0.5866214 1.0413059e-38
0.041186821 -0.11407028 -0.58739245 9.7673334e-39
0.044068083 -0.11421541 -0.58714521 1.0228674e-38
0.046211779 -0.11403622 -0.58697164 1.1430819e-38
0.048929747 -0.11308976 -0.58677739 1.3277973e-38
0.051214054 -0.11356941 -0.58690304 1.4016621e-38
0.053836975 -0.11361273 -0.58735067 1.3462372e-38
0.056921959 -0.11380176 -0.58708477 1.3647483e-38
0.058777474 -0.11420901 -0.5869143 1.32787e-38
0.031410854 -0.11174192 -0.58729285 7.6490003e-39
0.033362608 -0.11168387 -0.58713102 1.2165502e-38
0.036341522 -0.11136482 -0.58689231 1.2072226e-38
0.039422996 -0.11058185 -0.58666158 1.1152794e-38
0.041532647 -0.11108972 -0.58726954 1.115315e-38
0.04440162 -0.11160859 -0.58721077 1.1522654e-38
0.045713447 -0.11116563 -0.58711648 1.1155312e-38
0.048790373 -0.11174352 -0.58683741 1.2817353e-38
0.050910145 -0.11181897 -0.58665663 1.3371249e-38
0.053345192 -0.11105403 -0.5864796 1.3277978e-38
0.056147836 -0.11070319 -0.58726096 1.2540415e-38
0.058766134 -0.11118026 -0.58702397 1.2909197e-38
0.060167603 -0.11012117 -0.58694428 1.3276899e-38
0.031717956 -0.10859879 -0.58737987 1.0504175e-38
0.03351571 -0.1087988 -0.58722168 1.1428291e-38
0.036392055 -0.10894369 -0.58697498 1.069073e-38
0.038429528 -0.10922875 -0.5867936 1.1429017e-38
0.041237 -0.10822348 -0.58659387 1.2169101e-38
0.043466013 -0.10888565 -0.58738708 1.1062035e-38
0.046072595 -0.10822334 -0.58719194 1.0418109e-38
0.049262684 -0.10872862 -0.58690596 1.0419552e-38
0.051063508 -0.10892897 -0.58674747 1.2173069e-38
0.054047514 -0.10860938 -0.58650839 1.3001391e-38
0.056465693 -0.10865286 -0.58630371 1.3277258e-38
0.058878887 -0.1093502 -0.58708012 1.3462728e-38
0.060373437 -0.10919013 -0.58696038 1.3001747e-38
0.031588569 -0.10634413 -0.58696955 1.1242824e-38
0.033951242 -0.10573252 -0.58729517 1.170632e-38
0.036819164 -0.10628092 -0.58703464 1.0229037e-38
0.038265761 -0.10594984 -0.58692503 1.1244273e-38
0.041197214 -0.1063153 -0.58666575 1.2814832e-38
0.04334873 -0.10614934 -0.58682573 9.7720179e-39
0.046265278 -0.10638616 -0.58707434 1.0049325e-38
0.049056299 -0.10702658 -0.58698434 9.4035983e-39
0.051361013 -0.10626552 -0.5868181 1.1432981e-38
0.054200877 -0.10571939 -0.58659917 1.1340065e-38
0.055812996 -0.10574838 -0.58646274 1.1801768e-38
0.058951061 -0.10630197 -0.58634675 1.1431908e-38
0.060476996 -0.10620412 -0.58655679 1.2077635e-38
0.026434489 -0.10318284 -0.58701378 7.6486359e-39
0.029049693 -0.10375685 -0.58677357 1.216586e-38
0.031151943 -0.10373266 -0.58659786 1.1889275e-38
0.033473313 -0.10428472 -0.58663416 1.0782927e-38
0.036352839 -0.10385343 -0.58682615 1.3089261e-38
0.03826987 -0.1039499 -0.58666176 1.2443898e-38
0.041423794 -0.10372433 -0.58673966 1.2537888e-38
0.043187261 -0.10378709 -0.58658934 1.1245713e-38
0.046393193 -0.10343707 -0.58683473 1.0048606e-38
0.048993461 -0.10379677 -0.58710551 1.0234078e-38
0.051113229 -0.10387222 -0.58692485 1.0511023e-38
0.053582929 -0.10412192 -0.58670843 1.0602139e-38
0.055778246 -0.10444134 -0.58651257 1.1709208e-38
0.05898511 -0.10384582 -0.58626461 1.1707769e-38
0.060680687 -0.10340028 -0.58714241 1.0047171e-38
0.026382549 -0.101229 -0.58708829 1.0321586e-38
0.029356368 -0.10091048 -0.58684993 1.1798167e-38
0.030569738 -0.10052932 -0.58676177 1.2260582e-38
0.033796214 -0.10121437 -0.58660966 1.1800685e-38
0.036066871 -0.10153437 -0.58701712 1.2446414e-38
0.038739197 -0.1010677 -0.58706051 9.2170477e-39
0.041748334 -0.10152549 -0.58679134 1.170741e-38
0.043528944 -0.10165688 -0.58663708 1.106132e-38
0.046721995 -0.10147905 -0.58737946 9.4950737e-39
0.048093885 -0.10113046 -0.58727676 9.495431e-39
0.051420864 -0.10072371 -0.58701193 9.8627716e-39
0.053273208 -0.10113028 -0.58684182 9.4010718e-39
0.056051731 -0.10174014 -0.58658653 9.7702158e-39
0.059392825 -0.10137042 -0.58707237 1.013864e-38
0.060267515 -0.10086906 -0.58726794 1.0045368e-38
0.027014209 -0.099101447 -0.58711153 1.3365487e-38
0.029202035 -0.099419773 -0.58691645 1.2721563e-38
0.030688945 -0.099260524 -0.58679724 1.1246431e-38
0.033372406 -0.099525772 -0.5865624 1.0601786e-38
0.035772171 -0.098592304 -0.58739853 1.1800685e-38
0.038751084 -0.098273255 -0.58715975 1.1245709e-38
0.041165136 -0.098316669 -0.58695549 1.106132e-38
0.043374047 -0.09928795 -0.58673513 1.0508152e-38
0.046995476 -0.098777831 -0.58745342 1.0969842e-38
0.048384733 -0.099082768 -0.58732581 1.1062394e-38
0.051266 -0.09922789 -0.58707869 1.0231551e-38
0.052655257 -0.09953282 -0.58695102 1.0322309e-38
0.059854351 -0.098337837 -0.58739346 9.3081545e-39
0.060782105 -0.098541468 -0.58730823 9.2159616e-39
0.036404911 -0.096461117 -0.58742183 1.1154957e-38
0.039058782 -0.096881457 -0.58718389 1.0784732e-38
0.047303699 -0.097383663 -0.58747756 1.3366927e-38
0.060060184 -0.09740679 -0.58740962 9.9535267e-39
-0.035562716 -0.033161186 -0.12076899 1.1999851e-39
-0.034981139 -0.033788018 -0.12069767 7.4044751e-40
-0.036215749 -0.032151189 -0.1212785 1.1996236e-39
-0.035805695 -0.032849818 -0.11979643 1.1999851e-39
-0.036012493 -0.032287549 -0.11983397 1.1999837e-39
-0.033465136 -0.028368363 -0.11306629 1.1999809e-39
-0.033177298 -0.027736926 -0.1117259 1.1077811e-39
-0.032711912 -0.027136117 -0.11137366 1.4776468e-39
-0.032442611 -0.026224207 -0.11071432 1.0155855e-39
-0.034089204 -0.025890565 -0.10885625 9.251989e-40
-0.031569183 -0.025397591 -0.10966647 2.5814804e-39
