# .PCD v0.7 - Point Cloud Data file format
VERSION 0.7
FIELDS x y z rgb
SIZE 4 4 4 4
TYPE F F F F
COUNT 1 1 1 1
WIDTH 941
HEIGHT 1
VIEWPOINT 0 0 0 1 0 0 0
POINTS 941
DATA ascii
-0.0582279 -0.0015164334 0.064107716 5.433057e-39
-0.05515492 -0.0024693348 0.06395635 4.2370305e-39
-0.05045931 -0.0016349386 0.063601628 4.3285073e-39
-0.046600521 -0.00070008636 0.063791096 3.6835008e-39
0.038931061 -0.001613919 0.063493758 6.3546559e-39
0.043465082 -0.0011903044 0.063452601 5.8014849e-39
0.045458432 -0.00054150214 0.063650526 6.354293e-39
0.049076207 -0.00055450574 0.062810436 7.0911364e-39
0.054197982 -0.0018581996 0.063221298 6.999661e-39
0.071785353 -0.00082252733 0.063012898 5.6188859e-39
0.073598959 -0.00065308128 0.062996447 5.5263344e-39
0.075865969 -0.00044127461 0.062975883 5.4341388e-39
0.079898015 -0.00060265511 0.064902842 5.5259799e-39
0.080904081 -0.0013868089 0.063950881 5.8936764e-39
0.087393731 -0.002135234 0.063652456 6.72343e-39
0.088977687 -0.0021460094 0.063619554 6.4464872e-39
0.091079451 -0.001753704 0.062618673 6.3546503e-39
0.093388334 -0.0019936226 0.062561214 5.9862293e-39
0.098063886 -0.0020345561 0.063065007 5.708562e-39
0.10398386 -0.0015125189 0.063854061 6.1691801e-39
0.10866409 -0.00081444066 0.063187383 5.8940323e-39
0.11076507 -0.00063388469 0.063385621 5.6181657e-39
0.11379214 -0.00077731907 0.063986018 6.4464872e-39
0.11647451 -0.0012423228 0.064924344 7.6446647e-39
0.11986405 -0.0022234023 0.064993143 8.3818682e-39
0.12653838 -0.00066702347 0.063867852 6.8145509e-39
0.12877463 -0.0011817295 0.063101351 7.0904147e-39
0.13139893 -0.0023533541 0.063355885 7.2751619e-39
0.13908942 -6.65728e-05 0.063965261 4.6936926e-39
0.14730507 -0.00020701624 0.063817859 1.0226168e-38
0.14878558 -0.001430741 0.063695297 1.1425076e-38
-0.053094134 0.00039729662 0.063172698 5.0649933e-39
-0.051635247 0.00050123408 0.063658506 4.5125384e-39
-0.046415597 0.00025467947 0.063881785 3.9600877e-39
-0.043902948 0.0021041948 0.064160526 5.708562e-39
-0.04136128 0.0016985193 0.063674465 5.1561057e-39
0.021636121 0.0018372387 0.063053429 2.5785952e-39
0.049246103 0.00032268092 0.062893733 6.8149124e-39
0.08176019 0.00010942481 0.062922359 8.7539115e-39
0.11138128 0.0001059277 0.06343466 5.4337758e-39
0.11273906 0.00023278594 0.063422382 5.4337758e-39
0.13101004 0.00012053736 0.063110709 7.2751675e-39
0.13363102 0.00034279315 0.063754 7.8279811e-39
0.13629526 0.00058040145 0.06406337 6.3528524e-39
0.13925275 0.0006297119 0.064018324 5.0617549e-39
0.14130664 0.00059460057 0.063981488 6.5358018e-39
0.14367206 0.0008376849 0.063292854 9.1151186e-39
-0.043986835 0.0030092541 0.064234436 5.9851489e-39
-0.041515842 0.0042226184 0.063287377 6.2617386e-39
-0.038721427 0.0030877832 0.063284919 5.7092781e-39
0.021090468 0.0029840376 0.063488819 2.7626235e-39
0.024459124 0.0040818229 0.064799875 3.0381314e-39
0.026561521 0.0035545919 0.063972607 3.2221653e-39
0.027512968 0.0036797076 0.062806249 3.3136421e-39
-0.035566591 0.0060782041 0.06434083 6.078062e-39
-0.032606229 0.0065745078 0.063815027 4.3277912e-39
0.017341435 0.0061096884 0.064887851 2.7622648e-39
0.018602157 0.0065365806 0.06407319 3.315077e-39
0.021064026 0.00624314 0.063619621 2.7619046e-39
0.023765162 0.0056391805 0.063172378 3.0381328e-39
-0.031071549 0.0081573846 0.063607506 4.7891253e-39
-0.02653295 0.0093825767 0.064188205 4.7887679e-39
-0.023548305 0.0090732276 0.064691439 4.0512043e-39
0.01127702 0.0098759048 0.06469354 4.6040123e-39
0.014168248 0.0092032962 0.064241186 5.3415774e-39
0.016466426 0.0088765882 0.063961655 4.0519204e-39
0.018323049 0.0083152633 0.062946856 3.7753349e-39
-0.028888304 0.010052716 0.062542051 4.880602e-39
-0.026460323 0.010484177 0.063676223 4.9731578e-39
-0.023815652 0.011794012 0.063935302 4.9724375e-39
-0.021694994 0.011340282 0.063613459 4.1437559e-39
-0.018348768 0.011188183 0.06429857 4.3281471e-39
-0.016049087 0.011799665 0.064193234 4.5121797e-39
-0.013013482 0.011312529 0.064589679 4.4196253e-39
-0.011159867 0.012498166 0.063688308 6.5390416e-39
0.0089838505 0.011176295 0.064808048 4.6040137e-39
0.011215031 0.011553384 0.064195469 4.6962094e-39
0.014173311 0.011448094 0.063750863 4.6043739e-39
0.016219636 0.01120632 0.063871466 4.3277884e-39
-0.020921014 0.013480115 0.063487351 4.9727977e-39
-0.018626839 0.013618186 0.063988537 4.6040151e-39
-0.016774207 0.013795882 0.064313479 4.5121783e-39
-0.013764998 0.01426206 0.063645676 5.3408585e-39
-0.011177808 0.013453668 0.063905798 6.0784236e-39
-0.0081234425 0.014906745 0.06351088 6.1713409e-39
-0.006391421 0.014102511 0.06465283 6.2635365e-39
-0.0042134672 0.014238846 0.064520955 5.4337758e-39
0.003269583 0.014929738 0.064791799 5.9858678e-39
0.006405157 0.013857042 0.064759746 5.1564687e-39
0.0090245903 0.014229411 0.063923679 4.7884064e-39
0.011255577 0.013578728 0.063558728 4.7887651e-39
0.013717162 0.013567105 0.063314915 4.7887651e-39
0.016070994 0.014097854 0.064128004 5.1571903e-39
-0.020648606 0.015403258 0.062834263 5.7103627e-39
-0.018782562 0.015548997 0.063149452 4.880602e-39
-0.016069546 0.016246242 0.06332761 4.9724347e-39
-0.013795324 0.016067797 0.064278968 5.2483028e-39
-0.01133722 0.016130736 0.0644105 5.7092809e-39
-0.0086929416 0.016455095 0.064279228 6.2628148e-39
-0.0062844343 0.016436175 0.064651176 6.3550118e-39
-0.0037482679 0.015940504 0.063998587 5.8940337e-39
-0.00097094179 0.016429275 0.063688353 5.5248896e-39
0.00143374 0.016205311 0.064215966 5.7092809e-39
0.0035872296 0.016544599 0.06431289 5.9855091e-39
0.0062922873 0.01626615 0.063792266 5.3408599e-39
0.0083729271 0.016268563 0.06309291 5.3408613e-39
0.011568055 0.016383389 0.0636544 5.249023e-39
0.01355243 0.016324196 0.064013697 5.4326954e-39
0.015531186 0.015954169 0.063282393 5.2486643e-39
-0.010830987 0.018610872 0.062928647 6.0773446e-39
-0.0090077007 0.018781222 0.062912099 6.4464858e-39
-0.0060473904 0.018648066 0.063604869 6.0777033e-39
-0.0034361887 0.01873529 0.063934393 6.262096e-39
-0.0014149405 0.018656597 0.064004086 6.1699003e-39
0.0011849613 0.018783776 0.064008109 6.6305197e-39
0.003968087 0.01864538 0.063941009 6.2617372e-39
0.0061037512 0.018675087 0.063770823 6.4464886e-39
0.008523304 0.018658169 0.063855357 5.8011178e-39
0.011147872 0.018723181 0.06371101 5.9858692e-39
0.014001067 0.018865559 0.062967665 5.4326968e-39
0.015536639 0.018755987 0.062837921 5.2483056e-39
-0.0032082908 0.020697271 0.062969536 6.7227154e-39
-0.00092917681 0.020910209 0.062948845 6.2624575e-39
0.0012855709 0.020533007 0.063474879 6.5386856e-39
0.0037161447 0.020840814 0.063367993 6.5379654e-39
0.0064486577 0.021096116 0.063343197 6.3542902e-39
0.0088179912 0.021069843 0.063000835 5.9858678e-39
0.010900205 0.020837536 0.062747061 6.0780648e-39
0.013783414 0.020910598 0.062705159 5.7089222e-39
0.085533537 -0.10006572 0.065869868 6.905306e-39
0.096810929 -0.10079895 0.065624297 6.1688171e-39
0.09858904 -0.10063282 0.065608144 6.2610127e-39
0.1012562 -0.10038363 0.065583922 6.4454068e-39
0.10392336 -0.10013443 0.065559708 6.7212706e-39
0.072346032 -0.097857147 0.0652619 5.3405012e-39
0.073647417 -0.097602487 0.066264123 5.1557512e-39
0.076162867 -0.098618925 0.066140987 5.3397823e-39
0.078638554 -0.098408967 0.066618495 5.3397823e-39
0.081128821 -0.098251849 0.066690162 5.6163678e-39
0.083982281 -0.098287441 0.06704136 6.445404e-39
0.08615946 -0.098919451 0.066285782 6.4454054e-39
0.088535577 -0.09883102 0.066364974 6.2610156e-39
0.091185994 -0.098552741 0.066566333 6.076983e-39
0.093902826 -0.098768078 0.066336848 7.0911307e-39
0.096433081 -0.098680578 0.066301942 6.9063808e-39
0.098526165 -0.098929003 0.065996543 6.8138264e-39
0.10106391 -0.098568723 0.066066973 7.0896944e-39
0.10380021 -0.098805778 0.065668203 7.0900532e-39
0.10611997 -0.098678388 0.065639995 7.6432241e-39
0.10820444 -0.097947568 0.065663993 7.0907762e-39
0.061320316 -0.09522263 0.066324569 5.1561141e-39
0.063938037 -0.096315548 0.065524712 5.4323409e-39
0.06604173 -0.096037149 0.066156834 5.2483084e-39
0.06864541 -0.096095905 0.066166952 4.4192666e-39
0.071159728 -0.096223272 0.066769078 4.8795244e-39
0.073772855 -0.09626589 0.066572905 5.4316164e-39
0.0762996 -0.096179008 0.066232495 5.892233e-39
0.078699358 -0.096076608 0.066195093 5.9844273e-39
0.081013426 -0.096306726 0.066238403 5.7078404e-39
0.083121344 -0.095908776 0.065310553 5.8918701e-39
0.087492526 -0.095799699 0.065001786 6.444325e-39
0.090996578 -0.096140034 0.06681601 6.4450453e-39
0.09366218 -0.096491225 0.067024931 6.9985792e-39
0.096324503 -0.096242487 0.067000762 6.8141879e-39
0.098986834 -0.09599375 0.066976584 7.3662813e-39
0.10124642 -0.096228547 0.06692034 7.6428682e-39
0.10350599 -0.096463338 0.066864103 7.4584755e-39
0.1062314 -0.096299589 0.066163182 7.4584783e-39
0.10804024 -0.096176028 0.065808676 6.998582e-39
0.053713836 -0.093047895 0.066457599 5.2483042e-39
0.06142877 -0.093750879 0.066273749 5.0639129e-39
0.064480104 -0.093865834 0.066005126 4.879523e-39
0.066198051 -0.093835719 0.06649702 5.1553911e-39
0.068825461 -0.094086938 0.066440232 4.9706383e-39
0.071253344 -0.093963243 0.066668905 5.3390565e-39
0.073562846 -0.094279185 0.066596858 5.7078404e-39
0.076096423 -0.09423653 0.066662095 6.2599366e-39
0.078707159 -0.093545876 0.066419557 6.6287163e-39
0.081274383 -0.093542509 0.066225618 6.5365206e-39
0.083654284 -0.093711123 0.06605155 6.7209119e-39
0.086283714 -0.094011135 0.065743238 6.6287163e-39
0.087887354 -0.093761101 0.065195411 6.8131075e-39
0.091458775 -0.093974568 0.065316468 6.3521322e-39
0.093804084 -0.094159238 0.067209445 6.4454068e-39
0.096078657 -0.093589999 0.06721738 6.5372409e-39
0.098637618 -0.093605712 0.067173719 7.5510313e-39
0.10148525 -0.093976676 0.067096822 7.7354254e-39
0.10371885 -0.09378963 0.066907577 7.4591986e-39
0.10600596 -0.093670808 0.066154592 7.1826131e-39
0.10842466 -0.093248814 0.065367945 6.906385e-39
0.11048028 -0.092504129 0.065059125 6.1688199e-39
0.050147489 -0.090980552 0.066180646 5.5245295e-39
0.054356329 -0.091249242 0.066753872 5.247944e-39
0.055933803 -0.091262616 0.065711059 4.7866057e-39
0.058269203 -0.091787219 0.06613712 4.8791615e-39
0.060586169 -0.091835491 0.067077085 5.0635514e-39
0.071776986 -0.092114821 0.067220449 5.8922302e-39
0.073689617 -0.091816075 0.067289218 6.1688171e-39
0.077338614 -0.092042997 0.067358837 6.8123887e-39
0.078526862 -0.091195278 0.066999704 6.8131075e-39
0.081206575 -0.091108434 0.066876739 6.9053032e-39
0.083709545 -0.091313668 0.066468097 6.8131075e-39
0.086204447 -0.091517836 0.066064738 6.9974988e-39
0.08837302 -0.090793736 0.065532848 6.8131075e-39
0.091586709 -0.091403164 0.066659681 6.3528524e-39
0.093913212 -0.091473594 0.06742283 6.2613757e-39
0.096168675 -0.091223963 0.067238234 6.445404e-39
0.098576553 -0.091317378 0.067023657 6.9982177e-39
0.10129592 -0.091402769 0.066637307 7.4595559e-39
0.10398161 -0.091180347 0.066387691 7.64395e-39
0.10626131 -0.091044895 0.065747611 7.3673659e-39
0.1084334 -0.091017127 0.065212153 6.7219937e-39
0.11039804 -0.091616765 0.065131545 6.1688199e-39
0.030907158 -0.087514952 0.065773726 4.233432e-39
0.034194943 -0.089001134 0.065600216 4.141958e-39
0.035567794 -0.088762492 0.066599905 4.3263493e-39
0.04098532 -0.089188725 0.066141546 4.695129e-39
0.04368582 -0.088787079 0.067466833 4.9713557e-39
0.046409935 -0.089615382 0.065683089 5.2479426e-39
0.048733246 -0.088668428 0.066072866 5.6160063e-39
0.051294893 -0.088347718 0.066440344 5.6156461e-39
0.05425093 -0.0890674 0.066836305 5.8922302e-39
0.056081295 -0.089472011 0.066804588 5.6156461e-39
0.07896971 -0.088254824 0.067158297 6.7209147e-39
0.081358671 -0.088633865 0.067049712 6.8127516e-39
0.083766378 -0.088933028 0.066713557 6.9975016e-39
0.086240888 -0.088872895 0.066320084 7.1818929e-39
0.088734902 -0.088448845 0.065693319 6.7212748e-39
0.091236025 -0.089483306 0.065226734 6.7209147e-39
0.094245836 -0.087637007 0.06672141 6.1691815e-39
0.096318051 -0.088370696 0.066341616 6.5372409e-39
0.098664805 -0.089011021 0.066538095 6.629075e-39
0.10111579 -0.088835776 0.066065595 6.629075e-39
0.10380455 -0.088611417 0.06581606 7.1836921e-39
0.1065886 -0.089287482 0.065381311 7.0914993e-39
0.10934286 -0.089925215 0.06528461 6.3532112e-39
0.026198551 -0.085264824 0.066032052 4.4189008e-39
0.029445138 -0.086306527 0.065894783 4.6947688e-39
0.031799439 -0.08743158 0.065765619 4.5100189e-39
0.034906089 -0.086412534 0.066304475 4.6040151e-39
0.036628038 -0.08589109 0.066939957 4.9720774e-39
0.038986303 -0.086283877 0.066900805 4.9717173e-39
0.041333068 -0.086273178 0.066876009 4.9709956e-39
0.043756992 -0.086575776 0.066335909 5.2475811e-39
0.046421211 -0.086706065 0.06684158 5.6160035e-39
0.048328795 -0.086836964 0.066820763 5.8925904e-39
0.077334508 -0.086258799 0.067411765 6.7209147e-39
0.079502836 -0.086428896 0.067219645 6.7209147e-39
0.08150094 -0.086112782 0.066706181 6.6287191e-39
0.084111623 -0.086422853 0.066340834 6.9975016e-39
0.086435035 -0.086521864 0.065781876 6.8134705e-39
0.08872094 -0.086280756 0.065491006 6.4454068e-39
0.091168284 -0.086123928 0.066480458 6.0777061e-39
0.093684904 -0.085979365 0.066194601 5.9847916e-39
0.096565999 -0.086387925 0.065779679 6.537601e-39
0.098771185 -0.087332696 0.06566745 6.9974988e-39
0.10099784 -0.087124646 0.065647222 6.5368808e-39
0.020597663 -0.083098061 0.066298425 4.7884064e-39
0.02384425 -0.084139764 0.066161215 4.1430342e-39
0.027424484 -0.084135398 0.066673517 4.695129e-39
0.028410519 -0.083732322 0.066144854 4.8795202e-39
0.030206442 -0.08394058 0.066177085 5.1557498e-39
0.076633371 -0.083357036 0.066878021 6.6287191e-39
0.078923173 -0.083548807 0.066605404 6.4443278e-39
0.081305742 -0.083757304 0.066221297 6.3532112e-39
0.083390824 -0.083855018 0.065518945 6.4454068e-39
0.086165182 -0.083695903 0.066094264 6.6301582e-39
0.088859417 -0.08381331 0.066574357 6.3539343e-39
0.091234587 -0.083561517 0.066094466 5.8933162e-39
0.093288027 -0.083255887 0.065081626 5.8929547e-39
0.096052386 -0.084481582 0.0656901 6.2613743e-39
0.011755298 -0.080877565 0.065619528 4.6969409e-39
0.015971452 -0.081736922 0.066484153 3.4991095e-39
0.017822593 -0.081469811 0.06747818 4.0515602e-39
0.020908773 -0.081240043 0.065694414 4.7880463e-39
0.076023713 -0.08137273 0.066888116 6.3532112e-39
0.078473181 -0.081071407 0.066089578 6.3532112e-39
0.080801047 -0.081560597 0.065662377 6.2610156e-39
0.083436608 -0.081598453 0.066145338 6.1691815e-39
0.086154275 -0.081172764 0.066997148 6.0769886e-39
0.088683471 -0.081265539 0.065944448 6.2617386e-39
0.091344476 -0.081466749 0.065658525 6.0773474e-39
0.0089085437 -0.078361742 0.066871583 4.6036578e-39
0.016802281 -0.078164339 0.066205472 4.696208e-39
0.019870281 -0.079248413 0.066452801 4.9717187e-39
0.073828273 -0.078675263 0.067243308 5.708562e-39
0.076136038 -0.078733422 0.06645564 6.1691801e-39
0.078458071 -0.078855932 0.06556908 6.0766229e-39
0.08166647 -0.078956075 0.065479502 6.1691801e-39
0.083871022 -0.078560732 0.066215828 6.354293e-39
0.086092874 -0.079248846 0.06612388 6.2620974e-39
0.088212155 -0.079470873 0.065468967 6.2617386e-39
0.006674313 -0.076104611 0.067089468 4.787326e-39
0.016972184 -0.077287152 0.066288769 4.9717159e-39
0.069746628 -0.075276032 0.067329705 5.6170853e-39
0.071533456 -0.076174058 0.06687621 5.3404984e-39
0.073741332 -0.076516025 0.066298895 5.4323353e-39
0.075864933 -0.075881608 0.06569878 5.5245295e-39
0.078628726 -0.07625594 0.066287279 5.8929519e-39
0.081255779 -0.07635016 0.06658677 6.2617344e-39
0.083503544 -0.077220753 0.065727293 6.5383227e-39
0.0025616325 -0.074100949 0.066314816 5.3405012e-39
0.0058609024 -0.07461141 0.067222595 5.0639115e-39
0.011303641 -0.073745534 0.066397987 5.5238106e-39
0.067240104 -0.072564214 0.06708324 5.5248924e-39
0.068913318 -0.073279254 0.066882886 5.8014765e-39
0.071281038 -0.073635168 0.066601522 5.432694e-39
0.07382033 -0.073808312 0.066292502 5.5245295e-39
0.076386772 -0.073371969 0.066488005 6.0780634e-39
0.078820154 -0.073964357 0.065263137 5.8933134e-39
0.080528311 -0.073972084 0.065367997 5.8933106e-39
-0.0031533949 -0.072013073 0.065573394 5.431978e-39
-0.0018101297 -0.071887568 0.065561205 5.708562e-39
0.0081953704 -0.071314603 0.065867335 6.0773446e-39
0.011438191 -0.072355792 0.067213267 6.1688171e-39
0.063843608 -0.070576295 0.067236125 5.0639143e-39
0.066791572 -0.070859745 0.066772446 5.3404984e-39
0.06898468 -0.071464434 0.066304907 5.3408585e-39
0.071192086 -0.07145863 0.066524088 5.3408599e-39
0.073436894 -0.071250163 0.066267915 5.4334143e-39
0.076046668 -0.071332999 0.065720595 5.8940323e-39
-0.0066598095 -0.068291008 0.065929726 5.524168e-39
-0.0036922793 -0.067603253 0.066500515 5.9844273e-39
0.0045703799 -0.068749405 0.066287518 5.708562e-39
0.0053284615 -0.068849228 0.065792635 5.8929533e-39
0.058851011 -0.067624591 0.0667959 5.2483028e-39
0.06155682 -0.068052709 0.06711144 5.5248896e-39
0.063655913 -0.068690822 0.066219456 5.2483028e-39
0.066125661 -0.068770967 0.066081494 5.6174468e-39
0.0685177 -0.068911985 0.066001564 5.2493846e-39
0.071536794 -0.069399051 0.06621784 5.3415802e-39
0.073344484 -0.069284298 0.065528214 5.3415802e-39
-0.015412956 -0.065000661 0.067341745 5.1553855e-39
-0.011063509 -0.066381358 0.066656515 5.6160077e-39
-0.0090173585 -0.066651992 0.065236725 5.8925918e-39
-0.0069288164 -0.066960126 0.065464191 5.9844273e-39
-0.0035186112 -0.066706546 0.06658569 6.7216336e-39
-6.7949295e-06 -0.066958383 0.067135155 6.9071052e-39
0.054459512 -0.065511018 0.066997975 5.5241708e-39
0.05656321 -0.06573543 0.066434987 5.708562e-39
0.058387458 -0.066605896 0.066506274 5.4323339e-39
0.061328545 -0.066366442 0.066936873 6.0780634e-39
0.063603222 -0.066630386 0.065833442 5.8011178e-39
0.065932535 -0.067230992 0.066484369 6.4461299e-39
-0.027798027 -0.062772378 0.067413688 5.433787e-39
-0.026626527 -0.062926628 0.066648901 5.2493958e-39
-0.020182215 -0.0637049 0.066521227 4.9709942e-39
-0.019286714 -0.06362123 0.066513062 5.2468608e-39
-0.015495501 -0.06411007 0.067414522 5.5234477e-39
-0.014113385 -0.064430088 0.067365944 5.4316122e-39
0.052364945 -0.064442128 0.067338079 5.7085592e-39
0.053812671 -0.063604154 0.06671083 5.801115e-39
0.056045189 -0.063543364 0.06583678 5.8936722e-39
0.058606215 -0.06397225 0.066799954 5.8021982e-39
0.061669491 -0.064949527 0.06657061 5.8936736e-39
0.063016348 -0.064859435 0.066053808 5.7092837e-39
-0.046031203 -0.061714631 0.06510222 5.3426718e-39
-0.043607779 -0.061441064 0.066087306 5.1579176e-39
-0.04130799 -0.061210483 0.066402137 5.5252568e-39
-0.033770442 -0.06052443 0.065635517 5.1568358e-39
-0.031665523 -0.061628036 0.066877857 4.9728005e-39
-0.026058465 -0.062061276 0.066481054 5.0646402e-39
0.049042236 -0.060873911 0.066325031 5.802194e-39
0.051355448 -0.061745692 0.066234179 5.6178069e-39
0.053272389 -0.062054351 0.065489173 5.6170853e-39
-0.092010528 -0.058447812 0.065294385 4.6029362e-39
-0.083418831 -0.059337161 0.065912038 4.3274255e-39
-0.080915309 -0.059165433 0.066069819 5.4330556e-39
-0.073722944 -0.057919472 0.067173541 5.4326982e-39
-0.066438913 -0.057646599 0.066279978 4.5179306e-39
-0.061067339 -0.058564574 0.066607028 5.0650045e-39
-0.043879643 -0.057659041 0.067172989 5.065359e-39
-0.03359133 -0.059599746 0.065723345 4.9724417e-39
0.04363896 -0.058140881 0.066425003 5.249023e-39
0.046367157 -0.059188645 0.0662283 5.5252484e-39
0.048636496 -0.059543245 0.065659299 5.433773e-39
0.05081109 -0.059771754 0.065660298 5.065359e-39
-0.091821909 -0.057474036 0.065386862 4.2341536e-39
-0.087132402 -0.055590555 0.067277133 3.9586429e-39
-0.066148981 -0.05674997 0.065693215 4.6072521e-39
-0.056047022 -0.056580175 0.067212731 4.6965737e-39
-0.053454325 -0.056841064 0.066736057 4.880965e-39
-0.051560432 -0.057050195 0.066107601 4.696222e-39
-0.048506752 -0.057251021 0.067153916 4.8809678e-39
-0.046732128 -0.057404187 0.0672113 4.9731634e-39
0.039110038 -0.056067709 0.066258632 5.064273e-39
0.041009206 -0.056556098 0.066129252 5.1564673e-39
-0.087215237 -0.054696746 0.06735009 4.4196211e-39
0.031219458 -0.052887741 0.066870928 4.4210644e-39
0.033975758 -0.053545326 0.066438101 4.6972884e-39
0.036506355 -0.054210842 0.066421516 5.0646318e-39
0.03807582 -0.054067414 0.065316275 4.6958478e-39
-0.090675749 -0.052361064 0.065587938 6.721265e-39
-0.089325234 -0.052234888 0.065575689 6.3535643e-39
0.02918067 -0.050543617 0.066758037 3.867892e-39
0.030883756 -0.050840933 0.066714905 4.0519218e-39
0.033486884 -0.051707186 0.066294149 4.4203428e-39
0.035166264 -0.052465137 0.065081894 4.6962108e-39
0.027092135 -0.048073951 0.06598717 3.6842211e-39
0.028816639 -0.048438016 0.06680122 3.6842183e-39
0.030480601 -0.048852645 0.065791212 3.6838567e-39
0.026597666 -0.045849193 0.066333883 3.592024e-39
0.028355107 -0.046838574 0.066055082 3.6838581e-39
0.02435285 -0.043535069 0.066998266 3.4083544e-39
0.026102968 -0.043449972 0.066694804 3.7756964e-39
0.024705771 -0.042461291 0.06547308 3.0406523e-39
0.025641 -0.041437827 0.066458836 3.4076342e-39
0.022493325 -0.038152158 0.065855026 2.7637109e-39
0.023666034 -0.03853336 0.066522501 2.9470176e-39
-0.092969596 -0.035376377 0.065983534 5.4326968e-39
0.021767765 -0.03579038 0.066261321 2.8544604e-39
0.023214087 -0.036856696 0.066326559 2.6704293e-39
-0.093280554 -0.034056228 0.067097813 5.3405012e-39
-0.092380196 -0.033972111 0.067089647 4.9717187e-39
0.021785518 -0.033994775 0.065838911 2.5785952e-39
0.022031156 -0.031368304 0.066039093 2.4867611e-39
0.022645108 -0.030009454 0.066504955 3.224689e-39
0.023787782 -0.028677844 0.066473134 2.3942081e-39
0.025175326 -0.027966717 0.066626728 2.6697174e-39
-0.095958553 -0.025659284 0.065808356 6.3532112e-39
-0.094603188 -0.025532654 0.065796018 5.1571861e-39
0.026554748 -0.026650639 0.066136032 2.4863981e-39
0.02793709 -0.026046442 0.06627053 2.8544604e-39
0.031174421 -0.025192995 0.067470074 3.2239646e-39
-0.096035682 -0.023860654 0.066288173 6.0773432e-39
-0.094681136 -0.023734098 0.066275872 5.1571861e-39
0.029420022 -0.02486063 0.066805303 4.8805992e-39
0.030318759 -0.024776658 0.066797137 4.8805992e-39
0.034511834 -0.023267919 0.066263653 5.1561085e-39
0.036718387 -0.023292305 0.06565693 5.5245309e-39
0.037574649 -0.023319628 0.067473799 4.4196183e-39
0.046046644 -0.023307199 0.066654354 6.169543e-39
0.053910404 -0.022787187 0.066977054 4.6962122e-39
0.055744868 -0.023028741 0.06577947 4.7880533e-39
0.066331185 -0.022679638 0.066435963 5.4337898e-39
0.072459891 -0.022629727 0.066215605 5.5252638e-39
-0.10457242 -0.021715056 0.066686511 5.5248896e-39
-0.096022911 -0.022065474 0.067100674 5.2493818e-39
-0.094669975 -0.021939067 0.067088425 4.7884064e-39
0.036411375 -0.022391481 0.065883994 6.2610156e-39
0.037559897 -0.022426527 0.065278798 5.0639087e-39
0.043438211 -0.022297699 0.065831095 5.5241708e-39
0.054077238 -0.021925837 0.067058861 4.9720788e-39
0.055911694 -0.02216739 0.065861285 4.6958549e-39
0.069468237 -0.021567727 0.065904051 6.8149096e-39
0.070803389 -0.021445755 0.066393346 6.3542916e-39
0.072623953 -0.021782625 0.066296041 5.5245393e-39
0.078935072 -0.021478424 0.065638781 5.7092865e-39
0.081311263 -0.021815639 0.065186352 5.9858636e-39
0.083945952 -0.021289375 0.065606393 5.9862265e-39
0.08626318 -0.021352978 0.06514138 6.0791438e-39
0.08916761 -0.02099786 0.06548965 6.3542972e-39
0.091349423 -0.020655785 0.065470912 6.5379682e-39
0.093465984 -0.02068002 0.065075994 6.6312442e-39
0.095716864 -0.020469721 0.065055519 6.6319617e-39
-0.0961188 -0.018086221 0.067421116 4.6047312e-39
0.089939028 -0.019856725 0.066687167 6.2613827e-39
0.090648532 -0.019950151 0.066224009 6.1691871e-39
0.095826298 -0.019811682 0.065417975 6.2617386e-39
0.099936247 -0.019557644 0.066502213 6.0777103e-39
0.10051126 -0.019069377 0.066248588 5.9855147e-39
0.10486956 -0.018580671 0.067228436 5.893319e-39
0.10573564 -0.018683819 0.066066086 5.893319e-39
0.11139009 -0.018389657 0.066793822 5.9855133e-39
0.11253738 -0.017983243 0.066165209 5.7092837e-39
0.11617039 -0.017678715 0.066359639 5.6188831e-39
0.12149886 -0.017632218 0.066638112 5.3422963e-39
0.12287471 -0.017813385 0.06573993 5.3422963e-39
-0.10099888 -0.015547585 0.066985279 4.5118195e-39
-0.095086433 -0.017445916 0.067455351 4.1437559e-39
0.12165526 -0.016824702 0.066714816 5.3419375e-39
0.12409279 -0.01636068 0.066891082 5.3412173e-39
0.12627417 -0.016059414 0.066249408 5.9865867e-39
0.12892336 -0.015698751 0.066513345 6.5397618e-39
0.13114308 -0.015865766 0.066515826 6.0787865e-39
0.13357283 -0.015586746 0.066826321 6.7241587e-39
0.13630562 -0.015782198 0.06676539 6.9085528e-39
0.13862434 -0.015563186 0.066242874 6.8163599e-39
0.14049694 -0.015385857 0.065724403 6.446504e-39
-0.094054312 -0.013198659 0.06627354 4.5118167e-39
0.12739894 -0.014377777 0.067252427 7.0914937e-39
0.12868762 -0.013649385 0.066605046 6.9071052e-39
0.13135637 -0.013808125 0.06588503 6.1695402e-39
0.13341586 -0.013251093 0.065416701 6.4461243e-39
0.13622276 -0.014888388 0.066838384 6.9085514e-39
0.13901581 -0.014623192 0.066144489 6.7230853e-39
0.1408633 -0.014448458 0.065793455 6.6298135e-39
0.14621423 -0.013496935 0.065781027 8.3793753e-39
-0.10106948 -0.011500314 0.06550622 4.9717187e-39
-0.093407862 -0.011750324 0.065877199 4.5118167e-39
-0.08888074 -0.010434958 0.066242062 4.788405e-39
0.12900779 -0.011502477 0.06686867 6.9985792e-39
0.13126829 -0.011257395 0.066309147 6.4461257e-39
0.13378261 -0.011168775 0.065757141 7.0904133e-39
0.13551381 -0.01121416 0.06526567 7.4595559e-39
0.14678113 -0.011648053 0.066923112 9.0243817e-39
0.14804845 -0.011070308 0.066279531 9.94851e-39
-0.092311561 -0.0085449107 0.06547004 5.0649905e-39
-0.089954279 -0.0096083451 0.06599158 4.696208e-39
-0.086071849 -0.0083358698 0.065214664 4.6040151e-39
-0.083041228 -0.0079977978 0.065002799 4.6962108e-39
-0.081401825 -0.0083390214 0.066659145 4.7887651e-39
-0.07934726 -0.0082167061 0.066930786 4.6040151e-39
0.1266142 -0.0075897425 0.066810995 8.0116507e-39
0.12895525 -0.0086812517 0.066996954 7.5510341e-39
0.13118325 -0.0086643659 0.066123083 6.9989407e-39
0.13358904 -0.0087525435 0.065286763 7.0904133e-39
0.13595513 -0.0098372847 0.065287411 8.1049253e-39
0.14895816 -0.0090053333 0.066697478 1.3731052e-38
-0.085881412 -0.0073526017 0.065308064 4.6962108e-39
-0.079590082 -0.0066632256 0.065124229 4.4210616e-39
-0.075624101 -0.005786018 0.065057181 4.4203414e-39
-0.073635608 -0.0059121703 0.066218123 4.23559e-39
-0.071119219 -0.005541089 0.067008868 4.4196211e-39
-0.069020689 -0.0058334917 0.066139773 4.5121797e-39
-0.064044744 -0.0062245354 0.06749782 4.1433999e-39
0.12453279 -0.0056100562 0.06733945 8.5651804e-39
0.1262745 -0.006230975 0.066974021 8.2885977e-39
0.1287118 -0.0061613191 0.066354454 7.6439486e-39
0.13128042 -0.0065156184 0.066012703 7.0904161e-39
0.1335544 -0.0061326716 0.065189168 7.0900503e-39
0.14873734 -0.0064874352 0.066300899 1.1517276e-38
-0.067868859 -0.0047180429 0.065416664 4.9735165e-39
-0.065156363 -0.003592981 0.065059483 5.7092809e-39
-0.063543744 -0.0039570108 0.066006929 5.893675e-39
-0.061069679 -0.0039055236 0.066684984 5.433057e-39
-0.05451791 -0.0040556006 0.066811711 4.2370305e-39
-0.051222116 -0.003028892 0.066174001 3.7767726e-39
-0.047458142 -0.0025694966 0.066320121 4.0533595e-39
0.04870392 -0.0031471802 0.067222357 6.4461271e-39
0.050944526 -0.0028677799 0.065535426 7.3677204e-39
0.052748982 -0.0026851781 0.065185726 7.5517516e-39
0.063684411 -0.0031047349 0.06697759 5.893675e-39
0.065976858 -0.0033429461 0.066920549 5.6181671e-39
0.084194817 -0.0029923869 0.066333376 6.9071052e-39
0.085990548 -0.0033094622 0.06673269 7.0911364e-39
0.091658421 -0.0028580073 0.065688178 6.1695402e-39
0.094070159 -0.0033028189 0.06690523 6.3542902e-39
0.096047208 -0.0033648394 0.067116126 6.4464872e-39
0.098800123 -0.003242421 0.067396954 6.0780648e-39
0.10125611 -0.0027950983 0.067383319 5.6170881e-39
0.10265728 -0.0031382348 0.067178749 5.7082033e-39
0.10627283 -0.0026002917 0.065607652 6.9985778e-39
0.10868739 -0.0030147384 0.066207804 6.9067423e-39
0.11151725 -0.0031705678 0.067123927 6.6308757e-39
0.11259131 -0.0028296895 0.06700629 6.722714e-39
0.12164942 -0.0034432162 0.066811137 8.1971182e-39
0.12389278 -0.0037026608 0.067123592 7.9208914e-39
0.12626648 -0.0037623122 0.066536024 7.5521117e-39
0.12856543 -0.0038916962 0.065791801 7.3670002e-39
0.13104944 -0.0035687604 0.065389208 7.3666386e-39
0.13259803 -0.0038903095 0.065071955 7.0900503e-39
0.14660835 -0.0049025882 0.067466468 7.9198334e-39
0.14848836 -0.0038011922 0.066520244 1.0687876e-38
-0.056016814 -0.0014344597 0.066084355 5.0646332e-39
-0.053560741 -0.0012672995 0.067060441 4.9727977e-39
-0.047273815 -0.0016178936 0.066410482 4.3292261e-39
-0.043032035 -0.0007448364 0.066347465 3.5916625e-39
0.023431303 -0.00048110448 0.066851318 2.394564e-39
0.03445524 -0.0007357914 0.067106485 6.5383227e-39
0.035587668 -0.0013727136 0.067460358 6.722714e-39
0.038545907 -0.0010070661 0.066890717 6.2613771e-39
0.041350808 -0.001435155 0.066994578 6.261017e-39
0.042554498 -0.00059530139 0.066873789 5.9844315e-39
0.049026605 -0.0017450228 0.066994913 6.7227168e-39
0.051131766 -0.0016255639 0.065297425 6.9996624e-39
0.052665539 -0.0017849412 0.065259218 7.0914965e-39
0.06589371 -0.0024459241 0.066993803 5.5259714e-39
0.078540176 -0.0017167572 0.066842705 5.4337758e-39
0.082731843 -0.0023108311 0.065387398 6.722714e-39
0.085923776 -0.0023469217 0.065666586 6.1702563e-39
0.10643276 -0.0017745681 0.065686077 6.7219937e-39
0.10884676 -0.0021919161 0.06628596 6.4461271e-39
0.11122727 -0.0016801978 0.065309562 6.169543e-39
0.1138675 -0.0018402329 0.066946879 6.3539314e-39
0.11624482 -0.0013812324 0.065982319 6.9992995e-39
0.11870708 -0.0013964598 0.066123627 7.4602762e-39
0.12118294 -0.001334561 0.06582322 7.368082e-39
0.12377328 -0.0013994103 0.065992631 7.2758877e-39
0.12551506 -0.0023678206 0.066227645 7.2758877e-39
0.14366269 -0.00063937996 0.066853553 9.0225628e-39
0.14619671 -0.0012955666 0.066424549 9.7622957e-39
-0.049024176 0.00062650378 0.065464772 4.5121797e-39
-0.046457291 0.0007584272 0.067105085 4.7876861e-39
-0.042647935 0.0020887349 0.066145182 5.708562e-39
-0.041742742 0.0021733064 0.066136956 5.6163664e-39
-0.039213613 0.00017422065 0.066558778 4.9717159e-39
-0.037174106 0.0013387594 0.066735268 5.8021926e-39
0.021185301 0.00137517 0.066535592 2.8548205e-39
0.02847147 0.0024758503 0.066742003 3.2225226e-39
0.034711927 0.00058948621 0.067232341 6.3546531e-39
-0.042731531 0.0029905792 0.066218853 5.9851489e-39
-0.04104732 0.0036375625 0.065741122 5.9851503e-39
-0.038825326 0.0042999908 0.065757394 5.2475839e-39
-0.036276206 0.0037727065 0.06676361 5.8929519e-39
-0.033109963 0.0036551654 0.067094818 4.8802419e-39
-0.032308757 0.0035496652 0.066571757 3.867892e-39
0.016904572 0.0044986415 0.067358457 3.3147183e-39
0.018666241 0.0040698978 0.066542253 2.8541003e-39
0.021082809 0.0045539192 0.066210955 2.4856779e-39
0.023313925 0.004232619 0.065547496 3.0381314e-39
0.027713388 0.0025756694 0.067236871 3.3147183e-39
-0.033253722 0.0058967648 0.066897579 5.0649933e-39
-0.03192376 0.0062024482 0.067300528 5.1571889e-39
-0.028918285 0.0062548881 0.066237375 3.867892e-39
-0.025456622 0.0068882126 0.066609755 4.5132615e-39
-0.015139312 0.0072305202 0.067432731 4.3277912e-39
0.0085386038 0.0073975008 0.067066818 3.866813e-39
0.010967076 0.0070348345 0.066670686 3.7753349e-39
0.013909052 0.0064362627 0.066302501 3.7760551e-39
0.01633692 0.0062439609 0.066316761 3.5913024e-39
0.018693073 0.0057219565 0.065335296 2.8544604e-39
-0.028364183 0.008026991 0.065989189 4.6043739e-39
-0.025861461 0.0085005984 0.066507116 4.9731578e-39
-0.024271302 0.0088215852 0.066337653 4.4203456e-39
-0.021037459 0.0092710396 0.066974185 4.0515616e-39
-0.018562799 0.0092932731 0.066951029 4.1437573e-39
-0.016012326 0.0095874267 0.067181475 4.5125384e-39
-0.012849376 0.0092839003 0.06704551 3.9597275e-39
-0.01115064 0.0091347303 0.066551909 4.0515644e-39
-0.0086538047 0.0086505152 0.066686168 3.9597275e-39
-0.0064732311 0.0093571823 0.066795573 4.7891253e-39
-0.0037202239 0.0088307764 0.066940509 4.4203428e-39
-0.00084614754 0.0088477368 0.067247063 4.5125384e-39
0.0012751605 0.0088056913 0.066769548 4.5121797e-39
0.0041906163 0.0087894518 0.066786215 4.880602e-39
0.0060698902 0.0087361271 0.066671409 4.4196253e-39
0.0083032176 0.0088702496 0.066333212 4.4199826e-39
0.010913866 0.0086674625 0.066200323 4.1433943e-39
0.013243653 0.0086622471 0.0659675 4.9731536e-39
0.016012685 0.0084221372 0.066517062 4.6043739e-39
-0.025724735 0.010115165 0.06550467 5.3415802e-39
-0.023702051 0.010187577 0.066981971 4.7887651e-39
-0.021413194 0.011047799 0.066511311 4.3277884e-39
-0.018791428 0.011114429 0.066807665 4.4203428e-39
-0.016055828 0.011088393 0.066778347 4.6043753e-39
-0.013804877 0.011065919 0.066607185 4.788405e-39
-0.01126 0.01123214 0.066201039 5.4334157e-39
-0.0088579208 0.011528181 0.065875664 5.6181657e-39
-0.0059966445 0.01127283 0.066192485 5.5259714e-39
-0.0032084782 0.011128143 0.066817366 5.1575491e-39
-0.0010441765 0.011267493 0.06669461 4.7884064e-39
0.0013657995 0.01149575 0.066287845 4.879523e-39
0.0036340891 0.010828675 0.066315554 5.0639143e-39
0.0058887838 0.01124211 0.06595581 4.9717187e-39
0.0084539568 0.011412948 0.065693848 4.7876861e-39
0.011387669 0.011446553 0.066582039 4.6040137e-39
0.013520192 0.0110596 0.065973006 4.6040151e-39
0.015486073 0.01024917 0.065836012 4.5125384e-39
-0.015505839 0.01334811 0.065594435 5.0649933e-39
-0.013692234 0.013517556 0.065577954 5.6170853e-39
-0.010971822 0.013771723 0.065553248 6.1698989e-39
-0.0085056107 0.013477965 0.06576921 6.3542916e-39
-0.0063078566 0.013477094 0.066516869 6.1702605e-39
-0.0037113365 0.013848776 0.066421732 5.4326968e-39
-0.0013640415 0.013735794 0.066408753 5.064273e-39
0.0011577578 0.013831536 0.066131122 5.5252484e-39
0.0039715036 0.013882828 0.066270106 5.432694e-39
0.0062443586 0.014055977 0.066453397 5.2483028e-39
0.0088733751 0.013533783 0.066210166 5.064273e-39
0.01121031 0.013573073 0.066549465 4.8795216e-39
0.013655063 0.013642071 0.06563656 5.1564687e-39
0.015576715 0.01351833 0.06509316 5.1571889e-39
-0.0081305774 0.016011612 0.065685652 6.4468459e-39
-0.0064155445 0.015928842 0.06565062 6.2624561e-39
-0.0038848706 0.016256412 0.065634958 5.8936722e-39
-0.00099516567 0.016164025 0.065830491 5.7089222e-39
0.0013538951 0.016396822 0.065846086 6.2613771e-39
0.0034987468 0.015993701 0.065993249 5.8929561e-39
0.006216736 0.016247643 0.065968543 6.2617372e-39
0.0089724129 0.016054416 0.065851696 5.6170853e-39
0.011129074 0.016109999 0.065374509 5.5248896e-39
0.068929732 -0.095234714 0.067535311 4.6025802e-39
0.071165018 -0.095279865 0.067829132 4.9717173e-39
0.074099392 -0.095736235 0.06841284 5.4319766e-39
0.076548941 -0.095708281 0.068541713 6.0769844e-39
0.07881134 -0.095963657 0.068316549 5.708562e-39
0.081429325 -0.096253164 0.068249978 5.8007577e-39
0.083765194 -0.096391 0.068200231 6.3532098e-39
0.086422689 -0.096142717 0.068176098 6.3532112e-39
0.088637255 -0.095935814 0.068156004 6.3532112e-39
0.05617775 -0.092858858 0.067936927 4.7873274e-39
0.057946485 -0.092571869 0.068933964 4.7873246e-39
0.063878722 -0.093881339 0.068061888 5.3405012e-39
0.066525012 -0.093448535 0.068643667 5.2479468e-39
0.068609156 -0.09318734 0.068556696 5.3394208e-39
0.071003944 -0.093516365 0.068670481 5.7082005e-39
0.073643386 -0.093609281 0.068746574 5.9844259e-39
0.076186858 -0.093468748 0.069029629 6.445404e-39
0.078925259 -0.093933314 0.069480658 6.445404e-39
0.081078716 -0.093970127 0.069442034 6.4457669e-39
0.083467059 -0.093620047 0.06943053 6.7219937e-39
0.08603365 -0.093671001 0.069097281 6.7219937e-39
0.089019738 -0.093865342 0.068315573 6.6297995e-39
0.09145309 -0.093781054 0.068282008 6.261017e-39
0.093304798 -0.093274228 0.068291932 6.6297981e-39
0.051535659 -0.091063023 0.068157732 5.3404984e-39
0.053755756 -0.090737917 0.069150358 5.3401383e-39
0.056537788 -0.091893367 0.068342805 4.7873274e-39
0.059130915 -0.091247164 0.068588719 5.1557484e-39
0.061305225 -0.091470346 0.069530562 5.5241708e-39
0.063672855 -0.091483198 0.068938233 5.6163664e-39
0.066374294 -0.091327436 0.069387242 5.6160063e-39
0.068961442 -0.091220707 0.068554059 5.8922316e-39
0.071138836 -0.091379933 0.068296947 6.1688171e-39
0.07370472 -0.09140332 0.068670012 6.3528482e-39
0.076256603 -0.091537833 0.068650931 6.8131075e-39
0.078999579 -0.09150181 0.069126584 6.8138278e-39
0.08157441 -0.091242217 0.069652416 6.906385e-39
0.083853677 -0.090918183 0.069640614 6.998582e-39
0.086209044 -0.091586709 0.069548033 6.8141921e-39
0.088650979 -0.091441877 0.068850286 6.7223538e-39
0.090968624 -0.090960264 0.068114735 6.1691815e-39
0.093975961 -0.090219177 0.067522287 6.2610156e-39
0.095750846 -0.09005335 0.067506194 6.3532112e-39
0.031963903 -0.088095382 0.06771642 4.233432e-39
0.033766676 -0.087854438 0.068374775 4.3256304e-39
0.036935806 -0.088524297 0.067599714 4.3263493e-39
0.038756683 -0.088188596 0.069101423 4.787326e-39
0.040986046 -0.087925114 0.069587268 4.8795202e-39
0.046377305 -0.088348925 0.069129564 5.3397795e-39
0.050944466 -0.089445375 0.068631612 5.5241708e-39
0.053616375 -0.088813327 0.068793796 5.7082005e-39
0.056278422 -0.088431202 0.068903767 6.1688171e-39
0.058819789 -0.089132868 0.069163047 6.1688185e-39
0.061018568 -0.08954183 0.069299847 6.3532084e-39
0.063598916 -0.089502692 0.069295168 6.260654e-39
0.066526532 -0.089458689 0.069574133 5.9844259e-39
0.069013007 -0.088499092 0.06955573 6.2610127e-39
0.071389966 -0.088566005 0.069293685 6.3532084e-39
0.073828727 -0.088792749 0.06865415 6.9053032e-39
0.076354899 -0.089004293 0.068229645 6.8131089e-39
0.07869152 -0.088650987 0.068010218 6.7209147e-39
0.081449687 -0.088350132 0.0698862 6.7219937e-39
0.084045999 -0.088869207 0.069801606 7.2751675e-39
0.086489692 -0.08881332 0.069514781 6.8141893e-39
0.088709041 -0.088968791 0.068426393 6.7223552e-39
0.09114974 -0.088699609 0.067690879 6.077346e-39
0.093708701 -0.088715315 0.067647226 5.9851489e-39
0.031356335 -0.085813835 0.068912625 4.6022145e-39
0.033301719 -0.086414255 0.069032952 4.7866057e-39
0.036676034 -0.085964173 0.067693263 4.7880463e-39
0.044369102 -0.085070208 0.069075376 5.6167195e-39
0.046279583 -0.085203923 0.06905213 5.9851419e-39
0.048544854 -0.085384361 0.06879729 6.2613687e-39
0.051031668 -0.086420141 0.068618909 6.353207e-39
0.053496439 -0.086889908 0.068976097 6.0766215e-39
0.055958852 -0.087059774 0.069798902 6.2610127e-39
0.069568977 -0.086738497 0.069759935 6.3532084e-39
0.071422271 -0.086057179 0.069548853 6.2610156e-39
0.073745094 -0.086272724 0.068984129 6.4450481e-39
0.07601206 -0.086386561 0.068359733 6.6287191e-39
0.078346021 -0.085874043 0.067862011 6.6287191e-39
0.081045181 -0.086096019 0.067527056 6.6287191e-39
0.083923891 -0.087001905 0.069953248 6.9067451e-39
0.086515523 -0.086424135 0.069204122 6.537964e-39
0.08886373 -0.086110316 0.067936219 6.4464886e-39
0.090057418 -0.086572103 0.067879438 6.0777075e-39
0.022054117 -0.082767174 0.068307549 4.3274269e-39
0.025288964 -0.083805099 0.068170786 4.0508386e-39
0.028998775 -0.084730469 0.068704046 4.6022145e-39
0.032392651 -0.083877333 0.068421245 5.4323353e-39
0.033971854 -0.083968237 0.068614125 5.6167265e-39
0.041811198 -0.084415287 0.069615409 5.5241708e-39
0.043646127 -0.084975004 0.069547385 5.7085592e-39
0.068881258 -0.082519695 0.069901705 6.3532112e-39
0.071265444 -0.083571516 0.069384426 5.9844287e-39
0.073565878 -0.083824739 0.06842605 6.1688199e-39
0.075806536 -0.084146671 0.067965768 6.4446879e-39
0.077812903 -0.083788745 0.067646354 6.6287191e-39
0.081652328 -0.08323545 0.069289386 6.169543e-39
0.083655216 -0.083447903 0.068837821 6.2617386e-39
0.086117454 -0.084073663 0.068144903 6.6305197e-39
0.013320746 -0.080456093 0.068637401 4.3292317e-39
0.019286906 -0.081144661 0.069486707 4.6962108e-39
0.021972016 -0.081881404 0.068379879 4.3274269e-39
0.067196369 -0.081556723 0.069963068 6.8141893e-39
0.068932652 -0.081380472 0.069636129 6.2610156e-39
0.071272925 -0.081088498 0.069250025 5.892233e-39
0.073733211 -0.081268907 0.068340726 5.9844287e-39
0.076493971 -0.080601707 0.06958586 6.2617358e-39
0.078665629 -0.080993943 0.0691422 6.0773446e-39
0.081620023 -0.081412144 0.068808921 6.077346e-39
0.083797328 -0.081806071 0.068365037 6.0773474e-39
0.085169472 -0.082123786 0.068316877 5.8007605e-39
0.010450494 -0.079473406 0.067760289 4.8802461e-39
0.020792305 -0.078149185 0.069710076 5.0639115e-39
0.06476371 -0.078463301 0.069752842 7.1833306e-39
0.066852316 -0.078891635 0.069554783 6.8145509e-39
0.068850398 -0.078699745 0.069014467 6.077346e-39
0.071297474 -0.078564607 0.06844791 5.708562e-39
0.073900975 -0.07865721 0.06885764 5.8929533e-39
0.07596077 -0.078668959 0.069094792 5.9847888e-39
0.07859382 -0.078737147 0.068571724 5.9851489e-39
0.081221342 -0.079099372 0.067997515 5.8929547e-39
0.083645217 -0.079693019 0.067533553 6.2617386e-39
0.016609132 -0.07578598 0.068038099 5.2475839e-39
0.020960659 -0.077279925 0.069792628 5.1553883e-39
0.064181209 -0.075494036 0.069559187 6.5376024e-39
0.066112995 -0.07650575 0.069333024 6.7227154e-39
0.068463981 -0.076220036 0.068675846 5.9855105e-39
0.070940681 -0.076452732 0.068961091 5.5245323e-39
0.073872492 -0.07606528 0.068766475 5.6163664e-39
0.07631278 -0.075910889 0.067958057 5.6163664e-39
0.078481741 -0.077197313 0.067819037 5.8929533e-39
0.080287218 -0.077326439 0.067778826 6.1695402e-39
-4.8577785e-06 -0.073289752 0.068428993 5.9858706e-39
0.0013311468 -0.073164925 0.068416834 5.5248924e-39
0.015744627 -0.074325249 0.068893284 5.5241708e-39
0.059066594 -0.072529033 0.069797277 5.5248896e-39
0.061690543 -0.073323607 0.069585361 5.8011164e-39
0.063673638 -0.07349205 0.069509327 5.7089208e-39
0.066257469 -0.073838525 0.069229953 5.8936736e-39
0.068272285 -0.073865652 0.068616286 5.8014779e-39
0.070874542 -0.073968187 0.068490483 5.5241736e-39
0.073249862 -0.073963463 0.06816484 5.5241722e-39
-8.7108463e-05 -0.07240238 0.068501472 5.9851517e-39
0.011502892 -0.071266398 0.069805205 6.2617358e-39
0.057352185 -0.071532965 0.0698843 5.0639115e-39
0.059169475 -0.070865177 0.069493018 5.3408599e-39
0.061419707 -0.070965417 0.069264844 4.7887651e-39
0.063600197 -0.071283124 0.068566099 5.064273e-39
0.066173956 -0.071589835 0.068661533 5.4326968e-39
0.068853997 -0.071256667 0.068329118 5.3412201e-39
-0.0029836558 -0.069024533 0.069823444 5.8000346e-39
-0.00094050169 -0.067751229 0.067546993 6.4461271e-39
0.0081413984 -0.068848878 0.06883049 6.352851e-39
0.054954797 -0.067935944 0.06976074 5.1571889e-39
0.056840003 -0.068100423 0.069746673 4.6962108e-39
0.058936033 -0.068713635 0.069256879 5.1561099e-39
0.061357975 -0.06881389 0.069051839 5.4326954e-39
0.063602604 -0.069175631 0.068540834 5.3405012e-39
0.065964811 -0.069380991 0.068101317 5.4326968e-39
0.068823367 -0.0695443 0.067588888 5.3408613e-39
-0.012544036 -0.066774547 0.067811847 5.2483056e-39
-0.012369245 -0.065872028 0.067897558 5.4319752e-39
-0.0079423729 -0.066485882 0.0681023 5.524168e-39
-0.00076755881 -0.066858202 0.067631811 6.9993009e-39
0.0017966628 -0.06701535 0.068393856 6.6305183e-39
0.0039724112 -0.067121349 0.069409519 6.1695402e-39
0.051705971 -0.06596455 0.069418378 5.524891e-39
0.053662959 -0.066283591 0.06882669 5.3401397e-39
0.056191072 -0.066881865 0.06801787 5.1557484e-39
0.058733802 -0.065927453 0.069192551 6.0777033e-39
0.061298318 -0.06662406 0.068713129 6.1695402e-39
0.063677937 -0.067339852 0.067850769 5.9851489e-39
-0.023849264 -0.063089602 0.068194389 4.695852e-39
-0.022467017 -0.063126341 0.068802714 5.1568358e-39
-0.018561263 -0.063915566 0.068034932 5.2479426e-39
-0.016743585 -0.064547747 0.068517759 4.879523e-39
0.049187738 -0.0635878 0.069506377 5.5241708e-39
0.051174589 -0.063613072 0.068535224 5.801115e-39
0.053387091 -0.062930956 0.068374515 5.6181671e-39
0.056179557 -0.063943624 0.069250494 5.9862293e-39
-0.052764334 -0.060854819 0.068292737 7.4631769e-39
-0.051870428 -0.060771305 0.068284601 7.3702596e-39
-0.038616613 -0.060833301 0.069063395 5.6167321e-39
-0.037278183 -0.060708255 0.069051266 5.5256155e-39
-0.030228361 -0.061172534 0.068003334 4.7884106e-39
-0.028370187 -0.061048865 0.069649078 4.6962136e-39
-0.023845529 -0.062192392 0.068271704 4.6954905e-39
-0.022290677 -0.062215906 0.068889171 5.156833e-39
0.044389099 -0.060116392 0.069656551 5.708562e-39
0.046457358 -0.060661901 0.068730779 5.8011164e-39
0.048704851 -0.061585449 0.068921015 6.0777019e-39
0.050535958 -0.06179842 0.067996331 5.5252512e-39
-0.081006683 -0.058760371 0.068724595 5.5252512e-39
-0.079073504 -0.058767729 0.069505483 5.0646332e-39
-0.076181926 -0.058514591 0.069871485 4.7880463e-39
-0.073776491 -0.058208816 0.069292292 4.9717201e-39
-0.071054988 -0.058072198 0.068818688 4.8795258e-39
-0.068668045 -0.058279622 0.069264174 4.6036592e-39
-0.066406004 -0.057915393 0.069217697 4.5129013e-39
-0.064541049 -0.05787532 0.069729865 4.6965737e-39
-0.059310518 -0.05832237 0.068604052 4.6043809e-39
-0.045358807 -0.057504531 0.067530632 4.9731634e-39
-0.040859714 -0.057855416 0.068241283 5.3412243e-39
-0.038424075 -0.058055367 0.068475083 5.3412243e-39
-0.036957085 -0.058208283 0.068125337 5.1575519e-39
-0.033685476 -0.058397558 0.069637328 4.7887693e-39
-0.030168593 -0.059721913 0.068353981 4.6958549e-39
-0.028268397 -0.059807878 0.069546014 4.6036592e-39
-0.027488738 -0.05991054 0.06903705 4.880602e-39
0.041568045 -0.058470584 0.069277972 5.4323367e-39
0.043739919 -0.058823604 0.068353765 5.5245295e-39
0.046312708 -0.059453964 0.068101428 5.3415774e-39
0.048159413 -0.059839137 0.068708837 5.7103599e-39
-0.068750523 -0.057389837 0.069336861 4.143037e-39
-0.066736028 -0.056992054 0.068931803 4.3288674e-39
-0.064623453 -0.056986339 0.069802463 4.4199868e-39
-0.058053464 -0.05631597 0.068522602 4.7898483e-39
-0.056849599 -0.056474496 0.067736685 4.6054571e-39
-0.054656178 -0.056682814 0.067520648 4.9731606e-39
0.036928941 -0.055272076 0.068215556 5.5252512e-39
0.038529649 -0.056407169 0.068758436 5.4326954e-39
0.040466458 -0.057232983 0.067934245 5.3404984e-39
0.029478168 -0.052677825 0.068588793 4.4210658e-39
0.030941797 -0.053392235 0.069510639 5.1579078e-39
0.034148626 -0.053851999 0.069032818 5.8018367e-39
0.035790395 -0.054129485 0.068327948 5.5248896e-39
-0.090060256 -0.050435245 0.068742096 7.0900475e-39
-0.088936016 -0.050870162 0.068688594 6.3535671e-39
0.027495459 -0.050133981 0.069828808 4.1444789e-39
0.028647654 -0.050887827 0.069424905 4.1444775e-39
0.030807549 -0.051320691 0.068769701 4.5128985e-39
0.03267622 -0.052079473 0.067918479 4.6969296e-39
-0.090142943 -0.049543045 0.068814933 6.9989309e-39
-0.08879967 -0.04941754 0.068802744 6.3539286e-39
0.026936453 -0.04852907 0.069036417 3.8682522e-39
0.028566182 -0.049212616 0.068498477 3.8682508e-39
-0.090473734 -0.045974243 0.069106363 8.2885935e-39
-0.08908911 -0.046294838 0.069057748 6.8141865e-39
0.02431914 -0.045633283 0.069394201 3.8686109e-39
0.02588371 -0.045831885 0.068958357 3.9604464e-39
0.027622789 -0.04710583 0.068552047 3.9604436e-39
-0.089213163 -0.044956539 0.069167018 6.9063822e-39
0.024183817 -0.043660503 0.069199987 4.1444775e-39
0.025726557 -0.043956947 0.068018883 3.9600877e-39
0.023850916 -0.041343134 0.068474054 3.6845798e-39
0.025189385 -0.041506544 0.068284109 3.5920254e-39
0.02159958 -0.038776554 0.069870129 3.223966e-39
0.023129998 -0.039107863 0.068385608 3.3154385e-39
0.021395043 -0.036329139 0.068882331 2.947019e-39
0.022573799 -0.03674059 0.067949921 2.946656e-39
-0.092874892 -0.032686844 0.06920743 5.3405012e-39
-0.091977768 -0.032603025 0.069199324 4.9717187e-39
0.021195909 -0.033777017 0.068496548 2.6707908e-39
-0.092957728 -0.031793036 0.069280446 5.1571889e-39
-0.092060603 -0.031709217 0.06927228 4.880602e-39
0.021981874 -0.031195108 0.068982638 2.4867597e-39
0.022932753 -0.03090908 0.068984866 2.2098126e-39
0.021840625 -0.029181084 0.069594741 2.6715153e-39
0.02353926 -0.028713254 0.068941109 2.3016509e-39
0.02431594 -0.026704058 0.069752216 3.1310445e-39
0.025635257 -0.02666319 0.068457462 2.4863981e-39
0.028009713 -0.025677454 0.069341511 2.2098098e-39
0.030425787 -0.025094416 0.067958802 2.8551821e-39
0.028614827 -0.024948588 0.068818271 4.6040123e-39
0.031434368 -0.023636572 0.06920024 4.9720788e-39
0.033275723 -0.023444057 0.068786621 4.8798818e-39
0.036830097 -0.023221586 0.067959905 4.4196183e-39
